564

  -0.8340000000000000   8.7212024271701267 -17.0083576430009806   2.1460586274962368
   0.4170000000000000   8.6439801134167897 -17.9799003762768415   2.0787599774807695
   0.4170000000000000   9.0781339545175239 -16.7844217557983590   1.2505833937147461
  -0.8340000000000000   9.4634325716922980 -21.7989753999339371   5.0756661431789771
   0.4170000000000000  10.0448120963626195 -21.8583105639887734   5.7970379264639087
   0.4170000000000000   8.6600592231937057 -21.3143655150469407   5.3880244090245402
  -0.8340000000000000 -10.2055360648590270 -21.2565792512600282  -8.3833765817659209
   0.4170000000000000  -9.9147529559474208 -21.1519025317145122  -9.3379615273345795
   0.4170000000000000 -10.2068407767046416 -20.2770152596588531  -8.1606958553462601
  -0.8340000000000000  11.0843024216614889 -24.0156347881806020  -2.4170319022023299
   0.4170000000000000  10.1294059936121084 -24.2581267943695877  -2.4834926187952182
   0.4170000000000000  11.2983313287730738 -24.4211779742116697  -1.5830665433948010
  -0.8340000000000000  -1.0632970118850200 -15.2504585964475989 -12.2023623066215379
   0.4170000000000000  -0.6133952250327500 -14.8190970566066582 -11.4695374035734226
   0.4170000000000000  -1.2233204659754728 -14.5018592909340107 -12.8063169608588225
  -0.8340000000000000   2.8643373791423894 -21.1315649879738530  -5.7066272742202715
   0.4170000000000000   2.7186475041333904 -20.6739300191019559  -4.8374656666257767
   0.4170000000000000   2.7970201531989973 -20.3347569009754174  -6.2702962878782671
  -0.8340000000000000   0.7326788597569581 -12.8293654112906115   9.6328712389632987
   0.4170000000000000   0.7082619546541110 -12.3904574440717052  10.5478920564003626
   0.4170000000000000   1.0479991374209665 -12.0990287150872931   9.0559287136675621
  -0.8340000000000000   9.1323930135345321  -8.0497851476551769   0.8573086164672368
   0.4170000000000000   9.2112028491310483  -8.2700303305888809   1.8161969735500187
   0.4170000000000000   8.1123879184580510  -8.2187646949843938   0.7630808289253982
  -0.8340000000000000  -1.2687192205049300 -15.7445743960804982   4.6748170206255741
   0.4170000000000000  -1.7008259718407581 -15.0873754110735305   4.1025176589133734
   0.4170000000000000  -0.8729445820319398 -16.3732577308387306   3.9940548722800986
  -0.8340000000000000  -3.6486354163024064 -16.8282904300726237   5.6927900825776367
   0.4170000000000000  -2.9464507883053650 -16.5517009241741242   5.0996592247790442
   0.4170000000000000  -4.1983308714152177 -17.3389214949452146   5.0177345981575288
  -0.8340000000000000  -1.9535231760050253  -2.1698275438557473  -7.8838378980945034
   0.4170000000000000  -1.7367171782992219  -1.7461985513942411  -7.0353449628774944
   0.4170000000000000  -2.9173088702317584  -2.2857442669798593  -7.8329921343691300
  -0.8340000000000000  -0.9307826540953454 -15.8003722420660520  -8.4433838712164651
   0.4170000000000000  -1.8264579485674881 -16.1052893200307921  -8.6776655381747236
   0.4170000000000000  -0.8156856553768460 -16.2836630013150412  -7.5983738201879909
  -0.8340000000000000  -4.7475220429581038 -19.8022738695435834  -4.0970445810708318
   0.4170000000000000  -4.8899955871995173 -19.7715727346642645  -5.0990788401578264
   0.4170000000000000  -5.6399861584453239 -19.6947905275540300  -3.8168533279193042
  -0.8340000000000000  -6.3893562996560638 -11.2959100276474835   8.9903132192443334
   0.4170000000000000  -7.2436485662779857 -11.2705230827994196   8.5229831730713403
   0.4170000000000000  -6.6529655733080872 -10.9961685620743470   9.8955045292820163
  -0.8340000000000000   4.7397774532138204 -25.7996756958751448  -0.4568590880169795
   0.4170000000000000   4.2756674062487425 -24.9167444281675650  -0.4232795587770359
   0.4170000000000000   4.1851539485870504 -26.3469932486443597   0.1352423481681749
  -0.8340000000000000  -3.2382116982150513 -16.7732244517359845  -9.1138916381966091
   0.4170000000000000  -3.5614030262129792 -16.8247930911007764  -9.9949546852427176
   0.4170000000000000  -3.0508994262980558 -17.6474630980147609  -8.8385313480140688
  -0.8340000000000000  -2.9909352168991821 -13.6412558409817386  -6.2273032463159597
   0.4170000000000000  -3.2611840952972821 -13.4505879071856462  -7.1939322296989916
   0.4170000000000000  -3.0217340397720767 -12.7386413208219693  -5.8882631437868316
  -0.8340000000000000  -6.9038908484432531 -12.4686979532438755  15.1585314045900486
   0.4170000000000000  -6.3804714931922133 -13.1294032107844956  14.6760435779486205
   0.4170000000000000  -6.3858912519172168 -11.6509293696892993  14.8933497101063175
  -0.8340000000000000   4.0374882700734860 -13.7738971750911450  10.3756187093970098
   0.4170000000000000   3.5078614948477020 -13.1955845034416388   9.7658452511389715
   0.4170000000000000   4.9144608701542891 -13.3401242958697992  10.3406354978375337
  -0.8340000000000000   8.0697462485769851 -19.7142042263054336  13.5245919950194153
   0.4170000000000000   8.2015395548074483 -19.6204843440373935  14.4549543217184926
   0.4170000000000000   7.5217362942008439 -18.9120670056785656  13.2502922271632677
  -0.8340000000000000   8.1613567125389750 -15.3082121493412053 -14.4244391073078688
   0.4170000000000000   8.2998569437772272 -14.6563894200610942 -13.7298581343212422
   0.4170000000000000   7.2819083972896346 -15.6593257075256478 -14.1832179419599544
  -0.8340000000000000  13.9549038072672218  -0.5471048246145069 -22.0710650037786920
   0.4170000000000000  13.2954094180359448  -0.0330822513217811 -22.5398072871220094
   0.4170000000000000  14.7399601282229327   0.0496377034123223 -22.1578996933916876
  -0.8340000000000000  13.7465114155798194 -12.9010996092128529 -11.8023772043113233
   0.4170000000000000  13.2889821095513732 -13.1731064710454611 -12.6463905864416848
   0.4170000000000000  14.6651520935182145 -12.7470529761569615 -12.2191274616968180
  -0.8340000000000000  -0.1457371240314230 -13.5150857826920774  -2.2190139204397794
   0.4170000000000000   0.5024322395907250 -13.0941545496850491  -2.7805095413525867
   0.4170000000000000   0.3104304459248012 -13.8853176479236655  -1.4463743851451629
  -0.8340000000000000  -0.1821435190952526 -14.7158851003556315   0.2152181241761595
   0.4170000000000000   0.5890773075562460 -15.1984141633094421   0.3990232073928891
   0.4170000000000000  -0.8518317146503458 -15.3382882051365250  -0.0663741320650983
  -0.8340000000000000  -3.1418519289349591 -10.1558781785998988  -7.9898458409789805
   0.4170000000000000  -3.0534150407984137 -10.6259071110643717  -7.1395761062149079
   0.4170000000000000  -2.4343283285405293 -10.5314739677498874  -8.5232795693008594
  -0.8340000000000000  -1.7722835878835430 -17.5189245042527659 -15.9800074484504080
   0.4170000000000000  -1.2219443088263495 -17.5794631492117972 -16.7856358402281209
   0.4170000000000000  -2.4462653629007978 -16.8621999476350517 -16.3084896825977843
  -0.8340000000000000 -12.4748545533811015 -20.3289889095141874   6.3434841629994940
   0.4170000000000000 -12.5608236474900803 -21.0790314733387447   5.7213573890841145
   0.4170000000000000 -11.5708880572789319 -20.0494832595878449   6.0625474362195977
  -0.8340000000000000  11.9408648695357869 -16.4790246924913362  -9.0464300386759575
   0.4170000000000000  12.2698946808846046 -17.4493103511730290  -9.0361846365213037
   0.4170000000000000  12.6845260011723582 -16.0694093291217577  -9.5452785157612983
  -0.8340000000000000 -12.2855002111629599 -17.0326572872737323  -9.1212659391659408
   0.4170000000000000 -12.6269193576587515 -16.5163149253775892  -8.3607548282710002
   0.4170000000000000 -12.8481884158032251 -17.8496553656926551  -8.9841711936046647
  -0.8340000000000000   9.5932844381510645  -3.4317774284499265   6.2054336964275008
   0.4170000000000000   9.3812602390510307  -4.0549236985683716   5.4600359489564614
   0.4170000000000000  10.5562140605307953  -3.3749471114084857   6.0944709388657552
  -0.8340000000000000 -17.1935998842415891  -9.1811704049652203 -18.0815944685122929
   0.4170000000000000 -18.0869305005445362  -9.0446511913281853 -17.8241545423197572
   0.4170000000000000 -16.9442008746259454 -10.0088133091853688 -17.5379557030499136
  -0.8340000000000000  -4.7219617883619502 -21.3044340237104208 -10.0235652653775684
   0.4170000000000000  -4.3630034020321942 -21.6742326314516518 -10.8625996933610800
   0.4170000000000000  -4.6457133760660474 -20.3616712976867653 -10.2306874805513441
  -0.8340000000000000  -4.1983446560189890 -19.3002479694507336   1.3092606255243731
   0.4170000000000000  -4.4279731923462720 -19.1937191025501122   2.2438663423985443
   0.4170000000000000  -3.2468084713319643 -19.4687664561300231   1.3312596209109182
  -0.8340000000000000 -10.4882467715597336 -12.1529480856738630  22.1516592803086709
   0.4170000000000000 -10.7919939875652542 -11.6828914371964281  21.3639282382539797
   0.4170000000000000 -10.8674686991110416 -11.5608509807040978  22.8298718539487098
  -0.8340000000000000  -3.2821167528963033 -13.0914447001347405   7.8966830327169539
   0.4170000000000000  -3.9644070214196501 -13.2824618024655265   7.2190696719608836
   0.4170000000000000  -2.5034658851122158 -13.5522156062426582   7.4646737859786905
  -0.8340000000000000  -9.6179609131675541 -24.0831382436909109  -6.1270581254816125
   0.4170000000000000  -9.5673815428971078 -24.5169027798586256  -6.9971487779665216
   0.4170000000000000  -8.7201746001546852 -24.2626883251120233  -5.8079935519549162
  -0.8340000000000000  14.6187954155395712 -18.7295604431111506   7.0895068467380753
   0.4170000000000000  13.6905544032118129 -18.9082648291635387   6.9499251119142471
   0.4170000000000000  14.5611706436332486 -17.8798629007536896   7.5583805051543322
  -0.8340000000000000  -1.5288248438308185 -17.1288494829059523  -0.4914995470942440
   0.4170000000000000  -1.3737066228133508 -18.0694336206459099  -0.3650011654522645
   0.4170000000000000  -1.4348334489386891 -17.0757620239555656  -1.4516695839207454
  -0.8340000000000000   7.3224717725100259 -22.5271098855706171  -0.7315505029211361
   0.4170000000000000   7.4085446353892364 -23.3590650475807848  -0.1725226003428559
   0.4170000000000000   8.0664197742796144 -22.6679256710895984  -1.2977200469893901
  -0.8340000000000000   5.7181390701652299 -14.4700887776583915  -1.2327986549213839
   0.4170000000000000   5.9696548227837409 -15.3915288732134670  -1.5165145945676939
   0.4170000000000000   4.9699617803664635 -14.2856880446150321  -1.7762272150949008
  -0.8340000000000000   6.8929049822409620  -5.7914067845001211  11.7848742035893554
   0.4170000000000000   7.3578604905732750  -6.6490366415401070  11.6681448385274003
   0.4170000000000000   7.6619017623916976  -5.2600056944197471  12.0887300841649186
  -0.8340000000000000  10.4904944785811498 -17.4164044704804937  -0.2270514897227207
   0.4170000000000000  10.8705910719001757 -16.4901016535314504  -0.1937984257249265
   0.4170000000000000  10.7777498194841588 -17.6509539952960459  -1.1805076521903082
  -0.8340000000000000  -0.5560926334678655   2.3433725963852607  -0.5190572154187501
   0.4170000000000000  -0.8012875253347264   1.4175772703762293  -0.7636410629640212
   0.4170000000000000  -1.2616475627162180   2.8498424076214577  -0.9533690958520146
  -0.8340000000000000   8.3481274597719430 -24.1264558671846849  -3.1007642812306315
   0.4170000000000000   7.6603981925191604 -24.7289716247943083  -2.7601377230718032
   0.4170000000000000   8.1040273022934741 -24.1079699659515114  -4.0225546139864026
  -0.8340000000000000  11.5941689306240399 -17.0910320469086692   9.3760639274256548
   0.4170000000000000  11.3492335789355074 -18.0221054938772660   9.4716395291623741
   0.4170000000000000  12.5349773461830587 -17.1281647219652378   9.5947791211888891
  -0.8340000000000000   3.4084455404853324  -4.9250416392962126  -9.7382553975819395
   0.4170000000000000   3.0004411103738304  -5.6504956941411963  -9.2268326053358845
   0.4170000000000000   4.0435741077250578  -5.4778327770421766 -10.3385999880840913
  -0.8340000000000000   5.3037578048145679 -18.5842959484622661   0.6101607359217471
   0.4170000000000000   5.4295446827238596 -19.4604575106334714   0.9688220787937017
   0.4170000000000000   4.4437203176475570 -18.3046322135857942   0.9435359681157952
  -0.8340000000000000 -14.2440600545301965 -19.9447618044393380 -11.4179543500282339
   0.4170000000000000 -14.0353235151560547 -19.4616921962295955 -10.6043070097326755
   0.4170000000000000 -15.1880420271479775 -19.8619634550635347 -11.4424512107195291
  -0.8340000000000000  11.5217493589007418  -6.3175472381663624   2.7110592287015085
   0.4170000000000000  11.0935717038342556  -7.0904453645716101   3.0828851626859253
   0.4170000000000000  12.2348237632510362  -6.2537383624431317   3.4781520014448093
  -0.8340000000000000  -6.6935228737312462  -7.7374158238620288  12.0477204716209236
   0.4170000000000000  -7.1404396602588278  -6.8571228054360702  12.0719019938889076
   0.4170000000000000  -5.7952489462073498  -7.4681183143387511  11.7775457069555483
  -0.8340000000000000  -6.1778552684925367 -11.2326758969348202  -3.4148486514889536
   0.4170000000000000  -6.5023677878838493 -11.8468666169749461  -2.6420577482754344
   0.4170000000000000  -6.6981649123045353 -11.5924279898000737  -4.1483614985617514
  -0.8340000000000000 -15.8496036734161194  -6.2918950728510437  18.1772975238999486
   0.4170000000000000 -16.2135721415064360  -5.4039536076024195  18.1211044464762630
   0.4170000000000000 -15.0712365776247470  -6.2311079685925836  18.7236594185571725
  -0.8340000000000000   4.8377097317828834  -2.5891237382017844 -22.2882013184773449
   0.4170000000000000   5.6933407924226360  -2.9580116842383006 -21.8895568466678618
   0.4170000000000000   4.7962996692134165  -1.7166873235466993 -21.8798924820537124
  -0.8340000000000000   4.8181762038598457 -12.5731151488941180  15.5222932873785915
   0.4170000000000000   4.2229488676142042 -13.0061960860410526  16.1767066270795858
   0.4170000000000000   4.4189499617229151 -11.6814506588791289  15.4661744245045565
  -0.8340000000000000   3.8764615171426411 -19.7607871180414563  13.4971653893187700
   0.4170000000000000   4.0468565327648278 -18.8814630263732504  13.0829052472081440
   0.4170000000000000   3.9528990877659118 -19.4677299175610230  14.4369313957025316
  -0.8340000000000000   0.3798913785936323 -14.2001377557478001 -10.1634467732098308
   0.4170000000000000  -0.0761723414832387 -14.7725057146285756  -9.5623580356744480
   0.4170000000000000   1.2876444236680569 -14.6542003507656773 -10.1074761014637620
  -0.8340000000000000 -13.0608980912949253 -20.6365487940889132  -7.1865865494563899
   0.4170000000000000 -12.8563881597297449 -21.5922101429180593  -7.2712969400583587
   0.4170000000000000 -12.6831931877901667 -20.4764639703887319  -6.2715396869241609
  -0.8340000000000000 -10.7240116049755496 -13.3726969817275663 -11.9015217335731052
   0.4170000000000000 -11.0011512676656160 -14.3127823159619485 -12.1279866952897315
   0.4170000000000000  -9.9045826572766469 -13.6089266422376109 -11.3924457347657420
  -0.8340000000000000  -7.6426402275929428  -3.1869313002477972   6.1272406826766384
   0.4170000000000000  -6.9280554684858915  -3.7273295457112434   6.4068637477633015
   0.4170000000000000  -8.1515678872085555  -3.1098892853176818   6.9778583139103398
  -0.8340000000000000  -6.1599173253166981 -17.4357371196603097  -6.0120159480857414
   0.4170000000000000  -5.3893254379859368 -16.9074521268717426  -5.7075526693122196
   0.4170000000000000  -5.6366841597066184 -18.1366824647713507  -6.5423289852547128
  -0.8340000000000000   4.8209207841537909 -19.0886537197061799   4.6798545357502102
   0.4170000000000000   3.8482672751158655 -18.9776108410100335   4.6902431754861560
   0.4170000000000000   5.1002110758727266 -18.3566459622285336   4.0617336479015682
  -0.8340000000000000   0.2252363562924603 -14.4587819680221550  17.4181354413794729
   0.4170000000000000   0.3088208107632557 -15.2825408973910353  16.9263686050418087
   0.4170000000000000   1.1539182824363328 -14.1492194975222265  17.3010469730482619
  -0.8340000000000000   4.5736505614660787 -11.9002547999165156  -4.3425718675838825
   0.4170000000000000   4.6000142018201275 -11.7877827631750822  -5.3034629511825120
   0.4170000000000000   5.5367546556635245 -11.7609766062108054  -4.1643608565943238
  -0.8340000000000000  11.6927439293210167 -19.2845073863790084   6.4836972180571379
   0.4170000000000000  11.7599723134334031 -20.2315844359467611   6.2449761475280292
   0.4170000000000000  10.9897551207135056 -19.3307418891479230   7.1340910933339163
  -0.8340000000000000 -10.9875516116406935 -23.8079410061355716  -1.4393282423002205
   0.4170000000000000 -11.3121215925286691 -23.6787596454843658  -2.3771869534786352
   0.4170000000000000 -10.4662397995203769 -24.6514745697731712  -1.5636736532592936
  -0.8340000000000000  -2.7280153854650977 -23.2957732448975250   1.9151440550744343
   0.4170000000000000  -2.6844610470863302 -23.7145562370003340   2.8200156591774048
   0.4170000000000000  -3.6172711151985313 -22.8598697158588919   2.0112659483817983
  -0.8340000000000000   9.0330388356017863 -20.9201605603447938  -4.7979084983977227
   0.4170000000000000   8.3017400676279287 -20.9318987496904896  -5.4753437699844962
   0.4170000000000000   9.4275574075619151 -20.0399307882103983  -5.1535195228731290
  -0.8340000000000000  -9.2805913136629723 -14.3426128175745120   2.6583120144820502
   0.4170000000000000  -9.1725901019342224 -14.5305241494128925   1.7075458522761298
   0.4170000000000000  -8.6319905494108813 -14.9617479031270513   3.0774658082413975
  -0.8340000000000000   2.3332412102585089 -23.3949060497771590  -2.4526797897749866
   0.4170000000000000   3.2115689987074889 -23.3574517527315386  -2.9086555888237684
   0.4170000000000000   2.6007779053759261 -23.6101508489039240  -1.5628756543657554
  -0.8340000000000000  -5.2686208383578039 -22.6077301780661450  -2.3285848106872629
   0.4170000000000000  -5.4783326344794467 -22.2284654184116128  -3.1939358361900934
   0.4170000000000000  -4.3098013304008980 -22.5306650641552650  -2.3617642759021567
  -0.8340000000000000  -5.3287375515365385  -4.8700556666175103   6.9755456883855951
   0.4170000000000000  -4.7234618663398571  -5.6042639299568417   6.7924143998075817
   0.4170000000000000  -4.7161762274818884  -4.1058071780852714   6.9831876093426981
  -0.8340000000000000 -10.5759352033337155 -17.0533920361043378  11.3670449298108700
   0.4170000000000000 -11.5108602437626271 -17.2369025219506824  11.4290868543071600
   0.4170000000000000 -10.3988700804474661 -17.1468912263655007  10.4400947060691767
  -0.8340000000000000   0.2867490935541764 -22.3380124085919896  -5.1368325496901353
   0.4170000000000000   1.1937756407978179 -22.2569317054188787  -5.4844351530509083
   0.4170000000000000  -0.2118255093147655 -22.2959700104713114  -5.9689465279163150
  -0.8340000000000000   2.0684519097080107  -9.7663906543459653 -12.9163076684452864
   0.4170000000000000   2.6314025767042288  -9.4323532024185610 -12.1878362859635523
   0.4170000000000000   1.5728615486432762 -10.4553369756640642 -12.4520795611646946
  -0.8340000000000000  -0.2291967813837053 -22.8626938907441790   1.0790937484857750
   0.4170000000000000   0.1488296496363039 -23.7624902952381127   1.1318655891613449
   0.4170000000000000  -1.1807117153803162 -23.0499829380446819   1.1959641772402876
  -0.8340000000000000   5.6048916761637440 -17.7004696850368468   6.8627928590014466
   0.4170000000000000   5.2486496619654588 -18.2858239083205625   6.1928500611819652
   0.4170000000000000   5.2461490851897654 -16.8384923511468152   6.5588044882794909
  -0.8340000000000000   8.4379371931372376 -24.2484817196399725   3.5500640470830547
   0.4170000000000000   9.2537041964948248 -24.3021620924814492   4.1066653186052688
   0.4170000000000000   8.0025176179954105 -23.4776317348497798   4.0336237478884760
  -0.8340000000000000  -6.5063122897206176  -9.4897117965121716  -7.6381175052272638
   0.4170000000000000  -6.0683783986011752  -8.6807691041053108  -7.4013604930153640
   0.4170000000000000  -6.8069289851203871  -9.8001439430547546  -6.7107770574303078
  -0.8340000000000000   6.7128895156244965 -18.6964265753541632 -10.6661443555263045
   0.4170000000000000   7.4171459760348197 -18.0307438793756987 -11.0712673267862005
   0.4170000000000000   6.2226942801966310 -18.8231285562823807 -11.4930009336191414
  -0.8340000000000000  -1.0497982413267379  -8.2630985490734865 -10.9471163327889478
   0.4170000000000000  -1.6801302076672604  -7.5034669181183506 -10.8470458555763649
   0.4170000000000000  -0.3757239013836711  -7.7786159053101978 -11.4562671945381087
  -0.8340000000000000   1.6759125228514842 -11.1686708069155465   3.9044675458667997
   0.4170000000000000   1.4811266448112945 -11.7924479304562677   3.1655839596419453
   0.4170000000000000   2.0592585264743137 -11.7419415719364739   4.5662581245032650
  -0.8340000000000000  -6.6570815328145985 -14.7305838776114495   0.0979480405238939
   0.4170000000000000  -7.6426848233981541 -14.9282368374727898   0.2150229681329844
   0.4170000000000000  -6.4314780177071551 -15.6425621745637020  -0.3238844631309108
  -0.8340000000000000  -3.6186455610814865 -16.2315266138967367  -5.5393731763084286
   0.4170000000000000  -2.8979739398661017 -16.3862042350418307  -4.9163359477139883
   0.4170000000000000  -3.3728189284294214 -15.3093477664704825  -5.8497135663270754
  -0.8340000000000000 -17.2426305566117080 -14.8728298054309196  -5.7586640142242524
   0.4170000000000000 -16.4217524502186656 -14.3936193014331995  -6.0654215027704392
   0.4170000000000000 -16.8740987992001124 -15.2136981500962563  -4.9426885971085941
  -0.8340000000000000   9.8277597178534482 -12.7778073470967648   9.1428813781915981
   0.4170000000000000  10.7437070186826205 -12.3706046114087176   9.3279203347295372
   0.4170000000000000   9.9677847113163995 -13.7072935843058197   9.4071080909124642
  -0.8340000000000000   4.1721425457880619  -9.3545440189175597 -14.6239488140452423
   0.4170000000000000   4.9121569339449751  -9.6442504105874463 -14.0426471045859174
   0.4170000000000000   3.3797307574380655  -9.5891135194705850 -14.0905976284334251
  -0.8340000000000000   0.6936103116945663 -13.8340191612235817 -17.3851274301173788
   0.4170000000000000   0.5431485084695823 -13.5990143959256304 -18.3287759344680232
   0.4170000000000000   0.1456449334510745 -13.2055083966172244 -16.9303775151085958
  -0.8340000000000000 -14.4734084575663910 -20.4506470810411649   1.8604333850346000
   0.4170000000000000 -14.9370588798858375 -20.3027022520194294   2.6996445863838852
   0.4170000000000000 -13.5429852867775260 -20.3001754273562156   2.1057833220163471
  -0.8340000000000000   7.0821901403010807 -11.5201260092865390   3.6687332360007976
   0.4170000000000000   6.7614343785123250 -11.3416329694385123   2.7532357781565397
   0.4170000000000000   8.0309217312024241 -11.7019524786037366   3.4598794622875748
  -0.8340000000000000  18.4974971479376684  -2.1889478162806366  -3.3878709734263199
   0.4170000000000000  19.0282660327657034  -2.0465833959725193  -2.6304068223587604
   0.4170000000000000  17.6574635799372288  -2.6111506730454406  -3.0536287258734478
  -0.8340000000000000   2.1930883303150424  -7.1956153676378092  -8.7430931534305625
   0.4170000000000000   2.5720660112317386  -7.8605862730132543  -8.1258060335265974
   0.4170000000000000   1.2334410349936034  -7.2776586437625070  -8.5139408019722058
  -0.8340000000000000  13.0062375017619427 -20.6830137312163949   0.1277114087295134
   0.4170000000000000  12.1060212563660627 -20.4028597952451385   0.3576670269290639
   0.4170000000000000  13.4942260578308737 -20.6130591290064054   0.9342720023119427
  -0.8340000000000000   8.6158924059744120 -16.8744846472622356  -3.2371223167618091
   0.4170000000000000   9.3967196939719013 -16.5066799534640865  -2.8270943993667732
   0.4170000000000000   8.1514237343383460 -17.1982773048648951  -2.4494576395875716
  -0.8340000000000000  -3.7580983709248907  -8.4050608789778014   7.4043497334747874
   0.4170000000000000  -3.2903783743995363  -7.5670624325863551   7.3415573345060281
   0.4170000000000000  -3.1402779956031619  -8.9357704625686001   7.9716729829330948
  -0.8340000000000000  13.8586680043223947 -14.6290206270748158   0.0287643028272687
   0.4170000000000000  14.4729446596345177 -14.1114891909842211   0.5909281970355414
   0.4170000000000000  13.3906793953168322 -15.1722202844082688   0.6999434254849141
  -0.8340000000000000  -9.1078770476753430 -20.7166157826731983  -5.6831847728936005
   0.4170000000000000 -10.0654644600045113 -20.7371272464171987  -5.7084088021517498
   0.4170000000000000  -8.8850111735801409 -21.1642163096938845  -6.5341243245432983
  -0.8340000000000000  11.7683650404078186 -22.0786495142147032   6.8363312225312098
   0.4170000000000000  12.5711632883038238 -22.4930554437646997   7.0951531148510867
   0.4170000000000000  11.2052946724295683 -22.1559173068049269   7.6662215936849680
  -0.8340000000000000  -5.6005364232172505 -17.1731741870621128  -0.4694344011424886
   0.4170000000000000  -4.9781288976864024 -17.4845843792665931  -1.2066328854785315
   0.4170000000000000  -5.4193486592625231 -17.9434822846002717   0.1383818689300278
  -0.8340000000000000  13.5010255440202194 -16.5658775800136588 -13.2574091588071532
   0.4170000000000000  12.5050967002624631 -16.4879447198217264 -13.1904361883506258
   0.4170000000000000  13.6658649084868564 -16.2603361116789884 -14.1947689802187451
  -0.8340000000000000   8.7043662582620058 -17.2622898652270713 -11.3593494771155310
   0.4170000000000000   8.9709359259620349 -16.3077263243314441 -11.1839738595581153
   0.4170000000000000   9.3455432238346621 -17.4423059135757548 -12.0706695688613568
  -0.8340000000000000  -9.8097726884692840 -18.7184203651340368  -7.8740199052713091
   0.4170000000000000 -10.7103836285837009 -18.4371475063949326  -8.1086701257715763
   0.4170000000000000  -9.5696076592184145 -17.9234850052677004  -7.2325454191490683
  -0.8340000000000000   6.2009146054351039 -25.7048689824338723  -2.9035275315317368
   0.4170000000000000   5.9914651111176465 -25.6856327309067360  -1.9445121129907492
   0.4170000000000000   5.5460707037330499 -26.4153731429267786  -3.1423775765147455
  -0.8340000000000000   5.2239235878970938 -20.8970115630134750  -1.4951248575247420
   0.4170000000000000   6.0182951350829113 -21.3373061704709031  -1.1050589749737105
   0.4170000000000000   5.0246528203483418 -21.5165746584935427  -2.2925570762016991
  -0.8340000000000000   3.5220260805760621 -23.4740616382188207  -7.2544480833330898
   0.4170000000000000   3.3414209979766105 -22.8091098118848734  -6.6364849972993856
   0.4170000000000000   4.4497357254258576 -23.3585445781996341  -7.4091459729472371
  -0.8340000000000000   5.0710862103553840 -11.3206832982312715 -10.5841067653533827
   0.4170000000000000   4.5304120439473659 -10.5623839893012992 -10.3633152193718470
   0.4170000000000000   4.3838739907538011 -12.0244799208807880 -10.6783893883074370
  -0.8340000000000000  -5.1346328219110484 -10.5989523115781665   6.3160924758911481
   0.4170000000000000  -4.4391794011789996  -9.9718789595039095   6.5821510808187735
   0.4170000000000000  -5.6436965672544064 -10.6332954310846741   7.1458907606895066
  -0.8340000000000000   9.5076369580221805   2.2718322089472527   5.1159610630083963
   0.4170000000000000   8.8469131851480221   2.1898169143933113   4.3876117411300433
   0.4170000000000000   9.9481051205346187   3.0879896604516057   4.9062293819606602
  -0.8340000000000000   3.5754729468052497 -23.2713130828443688  -0.0533136163938358
   0.4170000000000000   3.0763002496946381 -22.9869122516118907   0.7691242774522737
   0.4170000000000000   4.3296644016054753 -22.6544804180838746   0.0298825576100111
  -0.8340000000000000  16.9557990533369782  -4.5851667564221863   2.8365202563639396
   0.4170000000000000  16.5244035720924494  -4.7800855008749572   1.9513124285653629
   0.4170000000000000  16.7607415769808448  -3.5993032756788428   2.8744638901470032
  -0.8340000000000000   1.0790653947133702  -4.1888122824929397  -4.8002661817006702
   0.4170000000000000   1.2148406115959207  -5.1280935051995584  -4.8592682322261904
   0.4170000000000000   0.1707130349958415  -4.0912407202028032  -4.4898727489000025
  -0.8340000000000000  12.4970567228623004 -21.1690650348449942  -2.3726777578496132
   0.4170000000000000  12.3558833795254763 -22.1099418050855476  -2.0607413942445709
   0.4170000000000000  12.8330930171676556 -20.7507588338556275  -1.5338425609993471
  -0.8340000000000000   7.0220528012383463   5.2742234897947871   3.0886910724110046
   0.4170000000000000   6.9092326916349203   4.6668087765309636   3.8426290706497510
   0.4170000000000000   6.3730596914430953   4.8938838657086432   2.4620308700018949
  -0.8340000000000000  -2.6057776078871377  -7.7961919455019872   4.3174929677490859
   0.4170000000000000  -2.1798573252139084  -7.1508298351928916   4.8751996752072015
   0.4170000000000000  -2.1025556053458114  -8.5792974987739505   4.4138558514381216
  -0.8340000000000000  -7.3590513273222706 -12.7136811572906172  -1.3979470046282916
   0.4170000000000000  -7.1492936315527560 -13.4771929887414341  -0.8583048288918822
   0.4170000000000000  -7.8471377630187158 -12.1446663560827588  -0.8555107628038159
  -0.8340000000000000   7.8930391496452472  -0.8126585093373335  -6.1418204265150349
   0.4170000000000000   8.8577193044295441  -0.8840955192463884  -5.9061014824469824
   0.4170000000000000   7.5782481235186223  -1.4979073989989293  -5.5479492967775341
  -0.8340000000000000  15.1899679387930586 -14.4527305678392679   4.8030527163257535
   0.4170000000000000  14.2390727928625420 -14.6263761268446597   5.0477917578052560
   0.4170000000000000  15.5792221699118176 -15.3047012378396037   5.1666738814002553
  -0.8340000000000000   8.1732515694826766 -17.3231203072511946   5.5777560847814476
   0.4170000000000000   7.2812479319380570 -16.9257889434391195   5.7894078093636940
   0.4170000000000000   8.7884574720737731 -16.6264498832235219   5.9173331100359636
  -0.8340000000000000  -7.5600889300913394  -6.6504256417169545   0.5454474906394701
   0.4170000000000000  -7.6533810757938117  -7.5801080500736520   0.3073490481658493
   0.4170000000000000  -8.1773022693252440  -6.2659021979111822  -0.1092311503535460
  -0.8340000000000000  -3.4632480686891642 -21.3569603550447198 -16.0725256812821584
   0.4170000000000000  -2.5724322785952709 -21.7554124633751229 -16.0031313657914041
   0.4170000000000000  -3.6745790931284916 -21.2786589426883523 -15.1067387435405180
  -0.8340000000000000  -8.7595389460121513  -9.2502822364113193   6.0729674292665043
   0.4170000000000000  -8.9851474766746762  -8.7458056110004598   5.2777366738975395
   0.4170000000000000  -7.9531347538295920  -8.7288690240484410   6.3463504948731551
  -0.8340000000000000  -3.3904086440016390 -15.0863664574014464  -0.3229538886344227
   0.4170000000000000  -2.9163913513695645 -15.9254582586193933  -0.0909922960334160
   0.4170000000000000  -4.1765600955600917 -15.4557527808690214  -0.7364062668989754
  -0.8340000000000000  10.7942857958136127  -9.1383043691671961   6.2438793180314791
   0.4170000000000000  10.4039826023921975  -9.1433691233313734   7.1518184777654907
   0.4170000000000000  11.0650870966766881  -8.1786282698215711   6.1598099044844208
  -0.8340000000000000  -2.0260050842512065 -20.0844357551359991 -18.1417154571749926
   0.4170000000000000  -2.7466800495986932 -20.5903428144187117 -17.7634363423607162
   0.4170000000000000  -1.2202622741144791 -20.5869863685859613 -17.9433859727963139
  -0.8340000000000000 -16.3761932515889406 -14.7485477999623864   2.4814826367883289
   0.4170000000000000 -16.9770332291777351 -14.1524746061655122   3.0329573754180181
   0.4170000000000000 -16.5920021879442565 -14.4544704297221269   1.5707812543419937
  -0.8340000000000000  -0.1901129614513569 -18.8478219299245069 -11.0520894231411173
   0.4170000000000000  -0.3597790775512036 -17.9095579149292483 -11.0520944357818429
   0.4170000000000000  -0.8817951462984776 -19.1907863649400348 -11.7001296843229898
  -0.8340000000000000  16.6310639881044935 -18.5778972660703268  -0.0190331085407836
   0.4170000000000000  16.9816579038235318 -17.6488979734538276   0.0293391283352375
   0.4170000000000000  17.3604517864638410 -19.0988749228352397   0.3972786154911381
  -0.8340000000000000  -2.6129407457642384 -19.6949519534147477  -8.4349340059987714
   0.4170000000000000  -1.9432708246937733 -20.1221077324169286  -8.9960429919005414
   0.4170000000000000  -3.2711758725694544 -20.3617768092415936  -8.3941277279760413
  -0.8340000000000000 -20.1200980912748868  -4.3332193801290257  -5.7607551446758265
   0.4170000000000000 -19.5204788373269871  -4.3065810981483983  -4.9914296644352305
   0.4170000000000000 -20.9619397662543108  -4.4072776680500274  -5.2636383801229334
  -0.8340000000000000   4.5195331726190426  -7.9016862457100236 -19.5023285827776149
   0.4170000000000000   4.9406546869239714  -7.0497734517673658 -19.6095803524112782
   0.4170000000000000   4.8635000854808714  -8.1419074408662695 -18.5925612025142684
  -0.8340000000000000   5.5164096135744405 -17.2148590472431806 -15.5207548722172284
   0.4170000000000000   6.1450688673709823 -17.2557440368161537 -16.3000719401651466
   0.4170000000000000   4.6616343866546339 -17.4557377278439141 -15.9955517825658760
  -0.8340000000000000   0.6496395178568440 -12.3554497296901289 -19.8178536047753724
   0.4170000000000000   1.3844693880296781 -12.5162362510980252 -20.4410132900778905
   0.4170000000000000   0.8563362544317844 -11.4507656912643618 -19.4833299104004993
  -0.8340000000000000  12.7014640413709934  -8.9130642080879401 -22.5004210499146922
   0.4170000000000000  12.9991538012696459  -8.8936074561023446 -21.5483724849411153
   0.4170000000000000  12.0190851311170963  -8.2770594384840930 -22.5526276912462897
  -0.8340000000000000   2.7082267946800491  -8.3008861217237406 -25.8935567443365073
   0.4170000000000000   1.8268474601816738  -8.5063684771569665 -25.6368875986488511
   0.4170000000000000   3.2768650345141999  -9.0008242513954020 -25.5554394410345189
  -0.8340000000000000   2.1428439020462369 -10.5787067138875361 -23.4659654628713845
   0.4170000000000000   2.8975356003169348 -10.2192813750781966 -24.0062025705904993
   0.4170000000000000   2.6533357504246964 -11.0163649451852379 -22.7578907961522674
  -0.8340000000000000   0.4316473590878371  -2.5763970290569951 -25.9620617865479595
   0.4170000000000000   0.9158836816364007  -2.0475966002101766 -26.6545423149216134
   0.4170000000000000   0.8417821287824968  -3.4650876801147210 -26.1478978370009223
  -0.8340000000000000  -8.2809902341857189  -8.2196643889501377 -14.7166479574596298
   0.4170000000000000  -7.5085501215013863  -7.6439611548719046 -14.5976049834320474
   0.4170000000000000  -7.8985753158569469  -8.8860981414200566 -15.2987357014272334
  -0.8340000000000000  10.2666816364161750  -9.9893799907079384 -21.0462935394613986
   0.4170000000000000  10.5258402563349787  -9.5247852828618012 -21.8584306312788996
   0.4170000000000000   9.3437376411368245  -9.8676407896007845 -20.9024517399798135
  -0.8340000000000000   0.4889679290077888 -21.5827778617574850 -13.6810124403548947
   0.4170000000000000   0.9432585477219811 -20.7841845127724909 -14.1111711368637209
   0.4170000000000000  -0.1178269430674918 -21.0976622605925748 -13.0354500854572102
  -0.8340000000000000  16.7890492077481959 -19.3209795430322337 -11.2068158536277416
   0.4170000000000000  16.6106642191484255 -18.4803657264843793 -11.6582739284560173
   0.4170000000000000  17.4285595958224953 -19.7511915151275055 -11.8021210460778008
  -0.8340000000000000   3.0853362360294603 -12.9873422790632311 -11.2382601105246049
   0.4170000000000000   3.3549316434511076 -13.3392413069001510 -12.0916405421252247
   0.4170000000000000   2.1568268345363983 -12.7741961315423787 -11.4412728257936092
  -0.8340000000000000   3.5304411548699681 -12.9514146920448567 -16.5589661587507884
   0.4170000000000000   3.0752547380936481 -12.0731710923888489 -16.5299303540873659
   0.4170000000000000   2.7890941113222047 -13.4945586591342757 -16.8165745128661719
  -0.8340000000000000   4.4517258016015990  -3.2322691530860426  -7.7722697282521498
   0.4170000000000000   4.5341640987760172  -2.6075524160666599  -7.0523392136956646
   0.4170000000000000   3.5408894047444228  -3.5739344721375574  -7.6595993858915561
  -0.8340000000000000 -12.6391146827600860 -10.9895079018745552  -6.5127123274758549
   0.4170000000000000 -13.2395014938311419 -10.8829589472415957  -5.7025213002148210
   0.4170000000000000 -13.2318868531841467 -10.4699490532013382  -7.1513304534594724
  -0.8340000000000000  -0.2410162012934499 -17.5017643828977008 -13.7399736040721159
   0.4170000000000000  -0.5806267187429058 -17.0375042235962972 -14.5380795324008876
   0.4170000000000000  -0.1858223980699064 -16.7284105425246992 -13.1388284085360958
  -0.8340000000000000  10.0388422966423132  -0.9995894363507908 -21.4647233224714640
   0.4170000000000000  10.0866171211589464  -0.1280761931776291 -21.9216845226347772
   0.4170000000000000   9.8177385637459018  -0.6656928458575330 -20.5836299970256924
  -0.8340000000000000  13.4150581008053393  -1.8267040330970594 -12.1015818092540961
   0.4170000000000000  13.3353790105743784  -2.7414368338726907 -11.8935807090252830
   0.4170000000000000  13.3788216147309260  -1.3267127202724278 -11.3001084253718567
  -0.8340000000000000  19.4180245376386686  -0.3813073727400348 -13.0802050330587072
   0.4170000000000000  20.3076439417511985  -0.0163947863014378 -13.1028252518827877
   0.4170000000000000  18.8900911363006792   0.2810110221045148 -13.5468029528582719
  -0.8340000000000000  -9.9769671094166750 -16.3245693795922051 -10.3552366976357870
   0.4170000000000000 -10.1216275176532218 -15.4553638850286887  -9.7683290880404332
   0.4170000000000000 -10.7922169773666443 -16.7881376707271066  -9.9864688530881764
  -0.8340000000000000  -3.3210362895260492 -19.1773725760518516 -14.3330069542615490
   0.4170000000000000  -3.5642918597807496 -18.3123729870486969 -13.9825280645309213
   0.4170000000000000  -2.7426867657092329 -18.8905772726010674 -15.0825283825543295
  -0.8340000000000000   1.1101210320298818  -7.7126568609143877  -2.6411691977341998
   0.4170000000000000   1.9462641506852978  -7.9246534860914029  -2.1731671531697714
   0.4170000000000000   0.5791041653345627  -7.4268928805719234  -1.9032939117981762
  -0.8340000000000000   0.3514036319852008 -11.5586784620931429 -11.4010704856643468
   0.4170000000000000   0.1728567680904312 -12.4656630442830743 -11.0941725523315604
   0.4170000000000000  -0.5989547334373582 -11.2672076642203542 -11.4676676346128321
  -0.8340000000000000   5.2569158071603139   4.4373439139226445 -24.0467285842983678
   0.4170000000000000   4.6345390870008245   5.0848515171377242 -24.4669927256141975
   0.4170000000000000   4.5276513154286411   3.9461165241894141 -23.5695494466726245
  -0.8340000000000000  -8.8319170809899639 -16.9106379288919086 -16.4247916406269283
   0.4170000000000000  -9.1847351821349452 -16.4858048920051701 -15.6509466817713534
   0.4170000000000000  -9.4142906739111059 -16.5856015170488149 -17.1524718751956833
  -0.8340000000000000   6.8247231476350763  -4.8583745204419957 -13.7633122731398920
   0.4170000000000000   6.1511112931532095  -4.1744932859561192 -13.8226909330964585
   0.4170000000000000   7.5558994188668862  -4.3494303792254074 -13.2913042049739207
  -0.8340000000000000   6.2216305698981706 -17.6466679341912247  -1.5724245039454037
   0.4170000000000000   5.5271885861909871 -18.0820075357607841  -2.1387684761958976
   0.4170000000000000   5.8383265083770626 -17.9641605885919056  -0.7021380512623558
  -0.8340000000000000 -12.1431184456257864  -7.7241814547431771  -0.6390637377879442
   0.4170000000000000 -13.0374117610606568  -7.9277801216994126  -0.3007916747652947
   0.4170000000000000 -12.4656308620843692  -7.2744988002627409  -1.4876222335546438
  -0.8340000000000000   2.9031073127498455 -19.7360974511433582  -9.9066242000589160
   0.4170000000000000   2.7486215820404318 -18.9879848878537594 -10.4769668571206775
   0.4170000000000000   2.6615298907801743 -20.4939951134568794 -10.4166503411280793
  -0.8340000000000000   0.7767541149725615 -20.1811310154881589 -17.4906942782081103
   0.4170000000000000   0.9823162669903026 -19.7297184978910138 -16.6470662819798072
   0.4170000000000000   1.6842668183484284 -20.6112131784696473 -17.6465085326189488
  -0.8340000000000000  -3.0311887949929979 -17.1981857166621168 -12.0356620842473134
   0.4170000000000000  -2.2095177519690510 -16.6846178914475054 -12.0194354749817656
   0.4170000000000000  -3.5702502060537755 -16.5574092973364344 -12.6431346976625250
  -0.8340000000000000  -9.1314503985461304 -25.8934985910571207  -2.7398616059754826
   0.4170000000000000  -9.7303946871052176 -26.1888356076425275  -3.4127379250890941
   0.4170000000000000  -8.4766215479098115 -25.3978374866425369  -3.2827191087201921
  -0.8340000000000000   7.9006747177070764 -11.4749735410084064 -16.9629424216214417
   0.4170000000000000   7.2578410739902983 -12.0214140846302264 -16.5349354960787984
   0.4170000000000000   8.7520515486427595 -11.8949309261777714 -16.6185193203670281
  -0.8340000000000000  -6.8894455635798924 -21.2483861960906957 -12.5036501078020397
   0.4170000000000000  -7.4839546726039767 -21.0396303142782095 -13.2359061911475688
   0.4170000000000000  -7.2066197947678807 -20.6834616570005885 -11.7938672325442404
  -0.8340000000000000   9.6897460529563304 -16.3038316958312315  -7.3082939133401057
   0.4170000000000000  10.3299805885016980 -15.6787572536962116  -6.8637968036921597
   0.4170000000000000  10.1723110491118476 -16.7565889472317018  -7.9652045943282355
  -0.8340000000000000 -11.9115522904381148 -19.9890054646270059  -4.7285535165162127
   0.4170000000000000 -11.5172381244848676 -20.2894809383043651  -3.8172797361661983
   0.4170000000000000 -12.6526365010388613 -19.5033107937542063  -4.2823655210708838
  -0.8340000000000000   3.6334461410854981  -9.0021075181035393 -10.6383791285080953
   0.4170000000000000   4.0970290690846332  -8.2308988677535417 -10.9736466105141517
   0.4170000000000000   3.0042921378360816  -8.5574135707559176 -10.0421235204386647
  -0.8340000000000000   7.2707216603035185 -22.9559937381387336  -9.7890563256035925
   0.4170000000000000   8.1522906653204252 -23.1622405230779265  -9.5390506649277267
   0.4170000000000000   6.7503292888080342 -23.2826499901519632  -8.9604195012020078
  -0.8340000000000000  -9.2618053461638237  -5.8685777950059164 -25.1874606757406490
   0.4170000000000000  -8.8327341219542994  -5.9040109396922027 -26.0808074811907744
   0.4170000000000000  -8.9816025643826158  -5.0011427700210351 -24.9111944199398749
  -0.8340000000000000  -5.1332378585958676  -8.4418915922795534 -19.5486525926856451
   0.4170000000000000  -5.8169891738349868  -8.1610061070279070 -20.2018799495552308
   0.4170000000000000  -4.9624137207231662  -7.5375118590448213 -19.1481701417439325
  -0.8340000000000000  12.5769221922084444 -19.3781272072998156 -11.4944066070146427
   0.4170000000000000  13.3520471355737946 -19.3444045079905074 -12.0552123688295492
   0.4170000000000000  12.8935618002107137 -19.3715900377917585 -10.5980135226483512
  -0.8340000000000000 -15.2488109907301030 -17.7585123088855248  -5.8037345703694507
   0.4170000000000000 -15.4329012654385007 -17.5775975500756090  -4.8600028795468884
   0.4170000000000000 -14.8627265758993445 -18.6426008044084242  -5.7642379985904109
  -0.8340000000000000   5.1245802176828423 -15.7948124782075094  -9.4851248820272147
   0.4170000000000000   5.7825735155769200 -15.1153130453194304  -9.3515057709752849
   0.4170000000000000   5.6266185869709817 -16.6199470985714051  -9.3939901993147892
  -0.8340000000000000   2.3720118644625829  -0.3424493343998850 -25.0441122211025515
   0.4170000000000000   3.2116145619508072   0.0826303622785556 -24.7333317141139304
   0.4170000000000000   2.6114593622222748  -0.8232939422915775 -25.8461695125904178
  -0.8340000000000000   9.7445166219571746  -9.2096074489225668 -17.5214702930427357
   0.4170000000000000   9.3427255796860607  -8.9995393043598693 -16.6362133692328946
   0.4170000000000000   9.2407204312797599 -10.0125031119986208 -17.7240817064300913
  -0.8340000000000000   3.0090359550119148 -12.2982447845994383 -21.6117707959411973
   0.4170000000000000   3.4599045277577929 -11.7021639795032026 -20.9831290712471059
   0.4170000000000000   3.7657106338245199 -12.8474102232837435 -21.8436244963357495
  -0.8340000000000000   0.0849365998019788   3.4683062088693579 -11.8474051589194858
   0.4170000000000000   0.7145469873259654   2.7595311674067182 -11.6796042559136080
   0.4170000000000000  -0.7508808754124509   3.0296786492386580 -11.8793088022665874
  -0.8340000000000000   6.7559642120714098 -13.7795517790584974  -9.4779479821764703
   0.4170000000000000   7.1588946992806024 -12.8791698172888047  -9.5654435314426234
   0.4170000000000000   6.8437605691373049 -13.8526054054191263  -8.4551378127784051
  -0.8340000000000000 -11.9919596804602246 -16.4382872069831478 -15.5835008534187658
   0.4170000000000000 -11.8158296354469190 -16.1236797892393966 -14.6949887034087912
   0.4170000000000000 -12.8259075656169834 -16.9431549165038469 -15.4121964464671315
  -0.8340000000000000  -5.9236010656120106 -19.7119762455072447 -15.6478432958279363
   0.4170000000000000  -5.6702754413074530 -20.3496383541666397 -16.3463980804438869
   0.4170000000000000  -5.0748197799412162 -19.6230619994277973 -15.1974712778546728
  -0.8340000000000000 -13.9790341827220370 -18.9987914766263337  -3.2455690470257950
   0.4170000000000000 -13.8392039059088194 -18.3861890937146768  -2.5069712613377795
   0.4170000000000000 -14.4795943092536383 -19.7454677645719165  -2.8501043404728392
  -0.8340000000000000   5.3855339256914361   1.3891762520631603 -12.8883849440295783
   0.4170000000000000   5.1061746887333079   0.7458486107757931 -13.5865904624014178
   0.4170000000000000   6.1929358565786421   0.9158183216006655 -12.6301633546042904
  -0.8340000000000000  -1.8935603591361387 -11.7954269323867393 -18.1589478429011741
   0.4170000000000000  -1.9631036318065045 -10.8524362990956238 -18.1506446781172421
   0.4170000000000000  -1.7512483754477097 -12.0066303565668395 -19.0777732051627780
  -0.8340000000000000 -17.0603843361692711 -11.4938620581079380  -7.2547489165306152
   0.4170000000000000 -17.7272327480541598 -11.8019612335941648  -7.9437596686894052
   0.4170000000000000 -16.7878595818674619 -12.3873423162255296  -6.9753412176791638
  -0.8340000000000000 -17.3000006572799840  -5.8022195630662567  -7.0515494314901206
   0.4170000000000000 -17.4247791039456921  -5.9042687239690270  -6.0562186155827948
   0.4170000000000000 -17.3280623240465026  -4.8427865257824090  -7.1209556154125915
  -0.8340000000000000   4.9780140410546672 -12.8561724176021990 -13.8813438563768443
   0.4170000000000000   4.9838972076322081 -11.9151049142368866 -13.7517850011163763
   0.4170000000000000   4.1209727840509487 -13.0087442401558881 -14.3404214631166713
  -0.8340000000000000   1.8934398307035063 -23.1945011938645180  -9.4832319240809486
   0.4170000000000000   2.6715139185106960 -22.9513272383205660 -10.0037810860914966
   0.4170000000000000   2.3206135766344702 -23.5279341205997667  -8.6149030042728842
  -0.8340000000000000  -6.3038983885178732 -24.8892085484877228  -7.4094528671243367
   0.4170000000000000  -5.6149248210803133 -24.2151892073031334  -7.4854612723594460
   0.4170000000000000  -6.9246566073581066 -24.5914785259217830  -8.0864870478908752
  -0.8340000000000000  -5.7822102206322032 -14.2714952787285139  -9.6626599845282737
   0.4170000000000000  -6.5986309031082264 -14.3063647551355224 -10.2766791301768361
   0.4170000000000000  -5.5187066358087602 -15.2218955929331017  -9.7888893714810017
