1541

0.0382  5.085  -1.815   3.754
0.0382  6.047  -2.435   5.075
0.0382  3.118  -2.862   4.326
0.0382  4.370  -4.116   4.399
0.0382  3.736  -0.450   4.994
0.0382  5.289   0.007   5.442
0.0382  4.628  -3.984   6.760
0.0382  2.918  -4.350   6.394
0.0382  5.249  -1.455   7.484
0.0382  3.881  -0.445   7.579
0.0382  3.150  -2.603   8.303
0.0382  2.201  -2.068   6.869
-0.0764 -19.972   6.113  10.656
-0.0764 -21.207   5.647  11.425
-0.0764 -19.981   7.603  10.549
-0.0764 -21.127   6.158  12.861
-0.0764 -19.959   8.310  11.906
-0.0764 -21.029   7.715  12.879
0.0382  -19.941   5.705   9.606
0.0382  -19.031   5.791  11.111
0.0382  -22.194   5.927  10.987
0.0382  -21.178   4.562  11.498
0.0382  -20.855   8.077  10.052
0.0382  -19.094   7.924  10.084
0.0382  -20.233   5.730  13.317
0.0382  -21.920   5.800  13.506
0.0382  -19.061   8.025  12.375
0.0382  -19.940   9.411  11.825
0.0382  -20.878   8.096  13.853
0.0382  -21.906   8.120  12.518
-0.0764 0.659  12.968   8.132
-0.0764 1.062  11.681   7.420
-0.0764 -0.756  12.965   8.586
-0.0764 0.708  10.485   8.329
-0.0764 -1.150  11.847   9.491
-0.0764 -0.741  10.506   8.770
0.0382  0.876  13.764   7.376
0.0382  1.308  13.218   8.998
0.0382  0.525  11.556   6.442
0.0382  2.106  11.599   7.225
0.0382  -1.392  12.941   7.704
0.0382  -0.887  13.981   8.969
0.0382  1.379  10.433   9.160
0.0382  0.840   9.632   7.735
0.0382  -0.483  11.851  10.359
0.0382  -2.184  11.830   9.809
0.0382  -0.912   9.615   9.435
0.0382  -1.514  10.373   7.989
-0.0764 7.057   0.977 -22.599
-0.0764 7.405   2.229 -23.484
-0.0764 7.637   0.964 -21.215
-0.0764 7.072   3.549 -22.790
-0.0764 7.253   2.268 -20.493
-0.0764 7.539   3.569 -21.322
0.0382  7.294  -0.001 -23.109
0.0382  5.953   0.892 -22.555
0.0382  8.466   2.281 -23.725
0.0382  6.973   2.131 -24.504
0.0382  8.734   0.861 -21.301
0.0382  7.388   0.132 -20.651
0.0382  5.962   3.745 -22.746
0.0382  7.437   4.362 -23.407
0.0382  6.189   2.112 -20.443
0.0382  7.696   2.316 -19.474
0.0382  7.006   4.413 -20.869
0.0382  8.658   3.775 -21.261
-0.0764 -5.453   0.294 -19.035
-0.0764 -6.845   0.860 -19.236
-0.0764 -4.523   1.344 -18.270
-0.0764 -7.377   1.368 -17.862
-0.0764 -5.129   1.797 -16.934
-0.0764 -6.512   2.357 -17.223
0.0382  -5.056   0.016 -19.992
0.0382  -5.472  -0.563 -18.518
0.0382  -6.754   1.661 -20.042
0.0382  -7.481   0.086 -19.580
0.0382  -4.419   2.245 -18.932
0.0382  -3.572   0.957 -18.050
0.0382  -7.713   0.553 -17.184
0.0382  -8.348   1.817 -18.153
0.0382  -5.318   0.865 -16.445
0.0382  -4.537   2.494 -16.302
0.0382  -7.048   2.783 -16.407
0.0382  -6.420   3.182 -17.850
-0.0764 10.889   5.763  -7.197
-0.0764 11.570   7.108  -6.937
-0.0764 11.490   4.614  -6.460
-0.0764 11.519   7.489  -5.472
-0.0764 11.471   4.976  -4.937
-0.0764 12.113   6.379  -4.637
0.0382  11.021   5.529  -8.249
0.0382  9.846   5.857  -7.040
0.0382  12.619   6.979  -7.269
0.0382  11.112   7.881  -7.577
0.0382  12.485   4.424  -6.766
0.0382  10.963   3.608  -6.429
0.0382  10.455   7.719  -5.332
0.0382  12.006   8.450  -5.196
0.0382  10.382   5.080  -4.691
0.0382  11.994   4.200  -4.270
0.0382  11.983   6.505  -3.507
0.0382  13.194   6.453  -4.672
-0.0764 5.056  -2.811 -24.073
-0.0764 4.301  -3.263 -25.355
-0.0764 4.931  -3.742 -22.875
-0.0764 4.438  -4.762 -25.622
-0.0764 5.426  -5.147 -23.253
-0.0764 4.475  -5.651 -24.362
0.0382  4.707  -1.840 -23.805
0.0382  6.095  -2.593 -24.423
0.0382  3.256  -3.172 -25.124
0.0382  4.503  -2.582 -26.202
0.0382  3.835  -3.783 -22.679
0.0382  5.415  -3.446 -21.961
0.0382  5.478  -4.819 -25.994
0.0382  3.741  -5.181 -26.341
0.0382  6.458  -5.142 -23.610
0.0382  5.388  -5.835 -22.446
0.0382  4.661  -6.656 -24.684
0.0382  3.372  -5.627 -24.038
-0.0764 -20.010  11.016   4.578
-0.0764 -20.166  12.551   4.309
-0.0764 -21.277  10.567   5.390
-0.0764 -21.464  12.787   3.527
-0.0764 -22.602  10.941   4.749
-0.0764 -22.704  12.409   4.298
0.0382  -19.147  10.688   5.150
0.0382  -19.976  10.644   3.574
0.0382  -20.126  13.179   5.287
0.0382  -19.303  12.911   3.731
0.0382  -21.301  10.997   6.408
0.0382  -21.119   9.535   5.668
0.0382  -21.368  12.260   2.512
0.0382  -21.678  13.824   3.265
0.0382  -22.791  10.424   3.790
0.0382  -23.379  10.733   5.495
0.0382  -23.633  12.602   3.656
0.0382  -22.725  12.966   5.217
-0.0764 -7.089  18.049  -3.420
-0.0764 -7.807  18.954  -4.545
-0.0764 -6.523  16.796  -4.019
-0.0764 -6.838  19.270  -5.739
-0.0764 -5.623  17.038  -5.246
-0.0764 -6.275  17.960  -6.322
0.0382  -7.790  17.751  -2.643
0.0382  -6.323  18.622  -2.888
0.0382  -8.673  18.320  -4.947
0.0382  -8.243  19.862  -4.136
0.0382  -7.314  16.027  -4.262
0.0382  -5.860  16.447  -3.201
0.0382  -6.012  19.874  -5.318
0.0382  -7.322  19.810  -6.602
0.0382  -4.719  17.584  -4.879
0.0382  -5.402  16.054  -5.574
0.0382  -5.497  18.260  -7.072
0.0382  -7.122  17.435  -6.819
-0.0764 -0.467  21.741  -8.622
-0.0764 -0.809  20.954  -7.384
-0.0764 -1.667  21.936  -9.596
-0.0764 -2.069  21.410  -6.644
-0.0764 -2.982  22.210  -8.918
-0.0764 -3.263  21.336  -7.673
0.0382  0.429  21.264  -9.086
0.0382  -0.125  22.716  -8.315
0.0382  -0.927  19.908  -7.668
0.0382  0.056  20.973  -6.651
0.0382  -1.776  20.916 -10.062
0.0382  -1.348  22.623 -10.336
0.0382  -2.010  22.355  -6.144
0.0382  -2.438  20.579  -5.950
0.0382  -2.983  23.285  -8.626
0.0382  -3.742  22.027  -9.609
0.0382  -4.110  21.693  -7.125
0.0382  -3.448  20.306  -8.002
-0.0764 -4.892  -3.578 -22.523
-0.0764 -5.567  -2.252 -22.105
-0.0764 -4.612  -3.654 -24.033
-0.0764 -4.887  -1.066 -22.602
-0.0764 -3.783  -2.497 -24.469
-0.0764 -4.490  -1.205 -24.095
0.0382  -5.480  -4.436 -22.273
0.0382  -3.957  -3.722 -21.998
0.0382  -6.666  -2.164 -22.315
0.0382  -5.615  -2.185 -20.997
0.0382  -5.490  -3.763 -24.560
0.0382  -4.115  -4.555 -24.301
0.0382  -4.032  -0.945 -21.905
0.0382  -5.409  -0.119 -22.456
0.0382  -2.768  -2.593 -24.014
0.0382  -3.599  -2.508 -25.620
0.0382  -3.864  -0.344 -24.474
0.0382  -5.410  -1.117 -24.700
-0.0764 2.453  24.374  -6.905
-0.0764 3.559  23.429  -6.559
-0.0764 2.619  24.986  -8.322
-0.0764 3.588  22.286  -7.627
-0.0764 2.746  23.887  -9.444
-0.0764 3.795  22.793  -9.054
0.0382  2.441  25.042  -6.064
0.0382  1.476  23.897  -6.802
0.0382  4.614  23.866  -6.530
0.0382  3.363  23.065  -5.575
0.0382  3.583  25.498  -8.263
0.0382  1.835  25.712  -8.470
0.0382  2.717  21.642  -7.458
0.0382  4.399  21.660  -7.282
0.0382  1.788  23.516  -9.536
0.0382  3.044  24.292 -10.435
0.0382  3.644  21.869  -9.660
0.0382  4.822  23.129  -9.216
-0.0764 -6.233  13.630   0.046
-0.0764 -6.703  13.743   1.592
-0.0764 -7.463  13.773  -0.864
-0.0764 -7.499  15.073   1.795
-0.0764 -8.264  15.011  -0.663
-0.0764 -8.710  15.244   0.765
0.0382  -5.827  12.616  -0.113
0.0382  -5.531  14.443  -0.224
0.0382  -7.279  12.887   1.959
0.0382  -5.787  13.800   2.217
0.0382  -7.958  12.805  -0.689
0.0382  -7.060  13.776  -1.886
0.0382  -6.724  15.858   1.575
0.0382  -7.748  15.249   2.841
0.0382  -7.657  15.873  -1.116
0.0382  -9.138  14.892  -1.373
0.0382  -9.097  16.260   0.940
0.0382  -9.485  14.546   1.052
-0.0764 -7.517   8.764 -15.301
-0.0764 -8.923   8.891 -15.794
-0.0764 -7.443   7.664 -14.212
-0.0764 -9.462   7.601 -16.311
-0.0764 -7.997   6.297 -14.775
-0.0764 -9.370   6.356 -15.346
0.0382  -7.142   9.638 -14.835
0.0382  -6.865   8.512 -16.180
0.0382  -9.510   9.307 -14.932
0.0382  -8.995   9.619 -16.597
0.0382  -8.065   7.881 -13.323
0.0382  -6.387   7.618 -13.890
0.0382  -8.951   7.336 -17.291
0.0382  -10.574   7.657 -16.556
0.0382  -7.258   5.961 -15.559
0.0382  -8.001   5.573 -13.984
0.0382  -9.652   5.387 -15.832
0.0382  -10.043   6.541 -14.499
-0.0764 5.125  -6.029 -17.358
-0.0764 4.366  -7.324 -16.864
-0.0764 5.191  -5.925 -18.880
-0.0764 3.043  -7.558 -17.656
-0.0764 3.838  -6.131 -19.597
-0.0764 3.139  -7.381 -19.169
0.0382  6.174  -6.076 -17.073
0.0382  4.687  -5.187 -16.763
0.0382  5.051  -8.176 -16.983
0.0382  4.202  -7.319 -15.785
0.0382  5.810  -6.759 -19.041
0.0382  5.778  -5.139 -19.341
0.0382  2.255  -6.867 -17.378
0.0382  2.552  -8.564 -17.542
0.0382  3.153  -5.347 -19.240
0.0382  3.858  -6.119 -20.670
0.0382  2.139  -7.515 -19.594
0.0382  3.654  -8.296 -19.554
-0.0764 -22.373   1.583  -9.077
-0.0764 -23.244   0.395  -8.632
-0.0764 -21.275   1.902  -8.121
-0.0764 -22.374  -0.775  -8.138
-0.0764 -20.395   0.733  -7.631
-0.0764 -21.242  -0.424  -7.154
0.0382  -22.995   2.442  -9.333
0.0382  -21.864   1.399 -10.052
0.0382  -24.022   0.661  -7.900
0.0382  -23.685   0.036  -9.506
0.0382  -21.623   2.266  -7.163
0.0382  -20.675   2.709  -8.483
0.0382  -21.921  -1.296  -9.108
0.0382  -23.080  -1.502  -7.751
0.0382  -19.706   0.343  -8.382
0.0382  -19.707   1.030  -6.813
0.0382  -20.654  -1.320  -6.864
0.0382  -21.679  -0.127  -6.229
-0.0764 -10.207   9.031   0.133
-0.0764 -9.170   8.857  -0.980
-0.0764 -9.937   7.997   1.308
-0.0764 -7.729   9.042  -0.522
-0.0764 -8.512   8.208   1.805
-0.0764 -7.450   8.136   0.703
0.0382  -11.236   8.919  -0.271
0.0382  -10.002   9.989   0.564
0.0382  -9.257   7.816  -1.349
0.0382  -9.313   9.432  -1.844
0.0382  -9.967   7.042   0.806
0.0382  -10.671   8.116   2.029
0.0382  -7.568  10.055  -0.069
0.0382  -6.960   9.042  -1.379
0.0382  -8.434   9.217   2.247
0.0382  -8.356   7.529   2.690
0.0382  -6.456   8.329   1.096
0.0382  -7.466   7.036   0.539
-0.0764 -6.365  -3.479 -16.469
-0.0764 -6.897  -2.130 -16.006
-0.0764 -4.984  -3.823 -15.887
-0.0764 -6.815  -1.805 -14.475
-0.0764 -4.953  -3.465 -14.381
-0.0764 -5.351  -2.025 -14.027
0.0382  -6.283  -3.506 -17.607
0.0382  -7.013  -4.283 -16.285
0.0382  -6.334  -1.327 -16.560
0.0382  -7.886  -2.028 -16.423
0.0382  -4.269  -3.244 -16.465
0.0382  -4.798  -4.908 -15.952
0.0382  -7.261  -2.569 -13.847
0.0382  -7.260  -0.828 -14.237
0.0382  -5.510  -4.292 -13.878
0.0382  -3.919  -3.656 -14.138
0.0382  -5.232  -1.825 -12.977
0.0382  -4.719  -1.312 -14.468
-0.0764 9.760  -0.104 -17.644
-0.0764 9.980  -0.490 -16.164
-0.0764 9.701   1.461 -17.830
-0.0764 11.277   0.184 -15.623
-0.0764 10.977   2.083 -17.269
-0.0764 11.233   1.684 -15.840
0.0382  8.958  -0.563 -18.219
0.0382  10.681  -0.374 -18.080
0.0382  9.070  -0.136 -15.585
0.0382  10.030  -1.551 -16.007
0.0382  8.896   1.860 -17.328
0.0382  9.622   1.621 -18.933
0.0382  12.089  -0.259 -16.236
0.0382  11.479  -0.004 -14.602
0.0382  11.831   1.637 -17.812
0.0382  11.052   3.185 -17.398
0.0382  12.212   2.059 -15.468
0.0382  10.462   2.115 -15.216
-0.0764 1.338  23.996   1.498
-0.0764 0.375  25.144   1.318
-0.0764 1.548  23.213   0.154
-0.0764 0.849  26.170   0.221
-0.0764 2.211  24.207  -0.897
-0.0764 1.404  25.490  -1.100
0.0382  0.931  23.299   2.255
0.0382  2.354  24.300   1.863
0.0382  -0.576  24.605   1.031
0.0382  0.123  25.738   2.252
0.0382  0.567  22.921  -0.181
0.0382  2.130  22.336   0.317
0.0382  1.645  26.750   0.724
0.0382  -0.018  26.820   0.075
0.0382  3.231  24.415  -0.645
0.0382  2.262  23.785  -1.822
0.0382  1.898  26.172  -1.779
0.0382  0.430  25.261  -1.690
-0.0764 -12.114  19.752 -10.317
-0.0764 -13.515  20.055 -10.856
-0.0764 -11.887  18.294  -9.963
-0.0764 -13.781  19.183 -12.138
-0.0764 -12.160  17.366 -11.141
-0.0764 -13.530  17.677 -11.829
0.0382  -11.968  20.403  -9.432
0.0382  -11.413  20.019 -11.067
0.0382  -14.208  19.835  -9.983
0.0382  -13.533  21.198 -10.986
0.0382  -12.668  18.054  -9.247
0.0382  -10.958  17.974  -9.557
0.0382  -13.048  19.498 -12.947
0.0382  -14.761  19.403 -12.564
0.0382  -11.342  17.426 -11.851
0.0382  -12.199  16.376 -10.763
0.0382  -13.566  17.132 -12.743
0.0382  -14.374  17.299 -11.227
-0.0764 -11.818   4.753 -19.669
-0.0764 -11.217   3.540 -18.883
-0.0764 -13.387   4.830 -19.535
-0.0764 -11.783   3.308 -17.453
-0.0764 -13.782   4.741 -18.071
-0.0764 -13.361   3.427 -17.391
0.0382  -11.604   4.830 -20.722
0.0382  -11.513   5.664 -19.259
0.0382  -11.309   2.600 -19.404
0.0382  -10.150   3.794 -18.827
0.0382  -13.891   4.082 -20.165
0.0382  -13.721   5.799 -20.019
0.0382  -11.409   4.131 -16.795
0.0382  -11.440   2.319 -16.955
0.0382  -13.406   5.632 -17.519
0.0382  -14.858   4.778 -17.976
0.0382  -13.817   3.392 -16.375
0.0382  -13.667   2.474 -17.833
-0.0764 -0.575  -3.910 -13.383
-0.0764 0.852  -3.467 -13.011
-0.0764 -0.808  -3.996 -14.907
-0.0764 1.936  -4.475 -13.649
-0.0764 0.246  -4.939 -15.545
-0.0764 1.721  -4.618 -15.174
0.0382  -1.242  -3.133 -13.082
0.0382  -0.804  -4.888 -12.952
0.0382  1.059  -2.504 -13.305
0.0382  1.113  -3.445 -11.897
0.0382  -0.875  -3.065 -15.420
0.0382  -1.822  -4.356 -15.104
0.0382  1.840  -5.456 -13.199
0.0382  2.980  -4.146 -13.411
0.0382  -0.109  -5.987 -15.287
0.0382  0.188  -4.962 -16.613
0.0382  2.454  -5.295 -15.727
0.0382  1.890  -3.531 -15.460
-0.0764 -22.786   7.558   1.458
-0.0764 -23.750   7.424   0.317
-0.0764 -21.461   8.312   1.019
-0.0764 -24.076   8.886  -0.140
-0.0764 -21.806   9.716   0.584
-0.0764 -22.855   9.749  -0.553
0.0382  -22.535   6.580   1.959
0.0382  -23.327   8.126   2.270
0.0382  -23.368   6.908  -0.556
0.0382  -24.642   6.912   0.746
0.0382  -20.925   7.815   0.267
0.0382  -20.831   8.508   1.853
0.0382  -24.528   9.275   0.735
0.0382  -24.836   8.768  -0.901
0.0382  -22.058  10.323   1.489
0.0382  -20.862  10.197   0.189
0.0382  -23.259  10.803  -0.860
0.0382  -22.364   9.256  -1.531
-0.0764 -11.367   0.180   8.973
-0.0764 -10.212   0.762   8.165
-0.0764 -10.885  -0.835  10.116
-0.0764 -9.072   1.297   9.067
-0.0764 -9.789  -0.130  11.001
-0.0764 -8.650   0.307  10.129
0.0382  -12.049  -0.393   8.300
0.0382  -11.930   0.960   9.397
0.0382  -9.788  -0.045   7.529
0.0382  -10.474   1.591   7.576
0.0382  -10.683  -1.916   9.805
0.0382  -11.812  -1.056  10.752
0.0382  -9.411   2.235   9.569
0.0382  -8.257   1.630   8.424
0.0382  -10.331   0.726  11.460
0.0382  -9.568  -0.820  11.840
0.0382  -7.918   0.751  10.834
0.0382  -8.185  -0.570   9.685
-0.0764 -11.356  -1.581  -2.804
-0.0764 -10.941  -1.659  -1.293
-0.0764 -10.153  -0.946  -3.583
-0.0764 -9.674  -2.582  -1.134
-0.0764 -8.789  -1.760  -3.466
-0.0764 -8.480  -2.099  -1.992
0.0382  -12.276  -1.015  -2.887
0.0382  -11.566  -2.537  -3.231
0.0382  -10.677  -0.631  -0.994
0.0382  -11.681  -2.130  -0.660
0.0382  -9.872   0.071  -3.266
0.0382  -10.415  -0.867  -4.675
0.0382  -9.986  -3.488  -1.604
0.0382  -9.311  -2.745  -0.112
0.0382  -8.838  -2.698  -4.113
0.0382  -8.042  -1.216  -3.957
0.0382  -7.717  -2.924  -1.835
0.0382  -8.084  -1.186  -1.510
-0.0764 0.744  16.276 -19.466
-0.0764 0.350  17.250 -18.312
-0.0764 -0.408  15.766 -20.326
-0.0764 -0.516  18.396 -18.899
-0.0764 -1.311  16.918 -20.719
-0.0764 -1.731  17.888 -19.590
0.0382  1.283  15.375 -19.135
0.0382  1.352  16.889 -20.044
0.0382  -0.249  16.705 -17.607
0.0382  1.221  17.654 -17.945
0.0382  -0.913  15.004 -19.810
0.0382  0.057  15.329 -21.229
0.0382  0.175  18.973 -19.492
0.0382  -0.924  18.994 -18.027
0.0382  -0.959  17.487 -21.607
0.0382  -2.208  16.444 -21.088
0.0382  -2.162  18.735 -20.105
0.0382  -2.450  17.481 -18.927
-0.0764 0.730 -10.971 -19.530
-0.0764 0.351 -10.775 -21.005
-0.0764 1.471 -12.309 -19.362
-0.0764 1.412 -11.169 -22.083
-0.0764 2.687 -12.332 -20.224
-0.0764 2.358 -12.335 -21.661
0.0382  -0.151 -11.065 -18.893
0.0382  1.292 -10.117 -19.119
0.0382  -0.555 -11.384 -21.018
0.0382  -0.063  -9.747 -21.124
0.0382  0.944 -13.209 -19.575
0.0382  1.822 -12.368 -18.359
0.0382  2.160 -10.290 -22.163
0.0382  0.907 -11.304 -23.102
0.0382  3.379 -11.479 -19.999
0.0382  3.257 -13.249 -19.946
0.0382  3.203 -12.496 -22.329
0.0382  1.845 -13.332 -21.849
-0.0764 -11.621  12.572  -1.483
-0.0764 -12.694  12.800  -0.386
-0.0764 -11.927  11.588  -2.632
-0.0764 -14.131  12.802  -0.952
-0.0764 -13.323  11.774  -3.207
-0.0764 -14.288  11.700  -2.019
0.0382  -10.654  12.344  -0.971
0.0382  -11.327  13.519  -1.944
0.0382  -12.592  11.938   0.404
0.0382  -12.536  13.684   0.207
0.0382  -11.884  10.525  -2.226
0.0382  -11.137  11.692  -3.358
0.0382  -14.502  13.770  -1.249
0.0382  -14.747  12.562  -0.063
0.0382  -13.442  12.738  -3.710
0.0382  -13.681  11.014  -3.912
0.0382  -15.282  11.779  -2.547
0.0382  -14.365  10.692  -1.600
-0.0764 -5.575  12.824  -5.563
-0.0764 -6.481  12.878  -4.385
-0.0764 -4.621  11.554  -5.427
-0.0764 -7.258  11.527  -4.020
-0.0764 -5.423  10.273  -5.081
-0.0764 -6.264  10.334  -3.821
0.0382  -5.062  13.806  -5.570
0.0382  -6.104  12.808  -6.473
0.0382  -5.892  13.099  -3.517
0.0382  -7.213  13.736  -4.505
0.0382  -3.848  11.734  -4.676
0.0382  -4.103  11.410  -6.388
0.0382  -7.987  11.250  -4.770
0.0382  -7.696  11.677  -2.986
0.0382  -5.960  10.243  -6.090
0.0382  -4.782   9.350  -5.078
0.0382  -6.746   9.421  -3.674
0.0382  -5.725  10.439  -2.890
-0.0764 -15.448  16.299  -7.624
-0.0764 -16.010  17.747  -7.372
-0.0764 -15.459  15.405  -6.335
-0.0764 -17.380  17.688  -6.703
-0.0764 -16.771  15.429  -5.490
-0.0764 -17.262  16.917  -5.395
0.0382  -14.477  16.318  -8.181
0.0382  -16.100  15.894  -8.427
0.0382  -15.258  18.318  -6.821
0.0382  -16.198  18.264  -8.377
0.0382  -14.635  15.760  -5.707
0.0382  -15.166  14.313  -6.557
0.0382  -18.091  17.138  -7.347
0.0382  -17.836  18.703  -6.529
0.0382  -17.557  14.827  -5.969
0.0382  -16.574  15.028  -4.481
0.0382  -18.205  16.751  -4.881
0.0382  -16.523  17.432  -4.789
-0.0764 -10.358  14.588 -16.836
-0.0764 -11.492  13.718 -17.465
-0.0764 -10.980  15.778 -16.091
-0.0764 -12.471  13.219 -16.383
-0.0764 -11.928  15.330 -14.972
-0.0764 -13.029  14.370 -15.450
0.0382  -9.817  14.942 -17.706
0.0382  -9.714  14.053 -16.193
0.0382  -12.123  14.274 -18.164
0.0382  -11.211  12.817 -17.995
0.0382  -11.551  16.351 -16.837
0.0382  -10.230  16.508 -15.701
0.0382  -11.882  12.509 -15.828
0.0382  -13.306  12.698 -16.885
0.0382  -11.367  14.881 -14.150
0.0382  -12.528  16.207 -14.656
0.0382  -13.571  13.955 -14.591
0.0382  -13.771  14.880 -16.122
-0.0764 -5.803 -12.539  -5.299
-0.0764 -4.430 -11.826  -5.009
-0.0764 -6.083 -12.679  -6.794
-0.0764 -3.320 -12.627  -5.705
-0.0764 -4.930 -13.226  -7.623
-0.0764 -3.566 -12.711  -7.240
0.0382  -6.606 -11.947  -4.857
0.0382  -5.899 -13.468  -4.699
0.0382  -4.463 -10.744  -5.447
0.0382  -4.300 -11.708  -3.926
0.0382  -6.327 -11.677  -7.133
0.0382  -6.916 -13.443  -6.927
0.0382  -3.324 -13.553  -5.188
0.0382  -2.344 -12.203  -5.617
0.0382  -4.915 -14.367  -7.544
0.0382  -5.142 -12.998  -8.702
0.0382  -2.863 -13.355  -7.639
0.0382  -3.332 -11.725  -7.695
-0.0764 -1.208  16.087  -1.761
-0.0764 -2.313  14.993  -1.632
-0.0764 -0.115  15.643  -2.757
-0.0764 -2.868  14.509  -3.001
-0.0764 -0.654  15.279  -4.164
-0.0764 -1.701  14.124  -4.047
0.0382  -0.710  16.385  -0.848
0.0382  -1.685  16.942  -2.157
0.0382  -1.891  14.097  -1.087
0.0382  -3.206  15.260  -1.108
0.0382  0.449  14.712  -2.482
0.0382  0.603  16.432  -2.874
0.0382  -3.553  15.239  -3.442
0.0382  -3.487  13.641  -2.835
0.0382  -1.032  16.117  -4.723
0.0382  0.189  14.809  -4.767
0.0382  -2.192  13.890  -5.009
0.0382  -1.158  13.239  -3.711
-0.0764 -24.868  -4.667   2.514
-0.0764 -24.313  -5.187   1.152
-0.0764 -24.344  -3.170   2.801
-0.0764 -24.584  -4.241  -0.027
-0.0764 -24.656  -2.264   1.650
-0.0764 -24.126  -2.801   0.281
0.0382  -24.628  -5.265   3.442
0.0382  -25.960  -4.635   2.523
0.0382  -23.247  -5.402   1.187
0.0382  -24.837  -6.088   1.033
0.0382  -23.230  -3.262   2.989
0.0382  -24.734  -2.747   3.756
0.0382  -25.630  -4.299  -0.317
0.0382  -24.045  -4.682  -0.867
0.0382  -25.694  -2.029   1.514
0.0382  -24.103  -1.329   1.902
0.0382  -24.461  -2.116  -0.531
0.0382  -23.035  -2.664   0.140
-0.0764 -3.538   9.421  -1.247
-0.0764 -3.549  10.942  -0.961
-0.0764 -2.334   8.665  -0.474
-0.0764 -3.665  11.205   0.580
-0.0764 -2.336   8.967   0.989
-0.0764 -2.512  10.502   1.359
0.0382  -3.606   9.246  -2.303
0.0382  -4.457   9.049  -0.894
0.0382  -2.590  11.343  -1.296
0.0382  -4.378  11.483  -1.407
0.0382  -1.392   8.971  -1.006
0.0382  -2.463   7.599  -0.588
0.0382  -4.641  10.889   0.992
0.0382  -3.620  12.269   0.790
0.0382  -3.194   8.367   1.346
0.0382  -1.492   8.533   1.504
0.0382  -2.523  10.668   2.420
0.0382  -1.562  11.010   1.013
-0.0764 -12.827  -2.245  -8.470
-0.0764 -11.670  -2.237  -7.464
-0.0764 -12.986  -3.648  -9.083
-0.0764 -11.784  -3.436  -6.461
-0.0764 -13.235  -4.742  -8.017
-0.0764 -12.057  -4.772  -7.110
0.0382  -12.663  -1.580  -9.297
0.0382  -13.783  -2.019  -7.900
0.0382  -10.752  -2.335  -8.004
0.0382  -11.629  -1.279  -6.977
0.0382  -12.088  -3.887  -9.694
0.0382  -13.795  -3.602  -9.869
0.0382  -12.620  -3.187  -5.832
0.0382  -10.818  -3.328  -5.858
0.0382  -14.145  -4.541  -7.406
0.0382  -13.506  -5.732  -8.450
0.0382  -12.185  -5.566  -6.311
0.0382  -11.131  -5.147  -7.529
-0.0764 -23.102  -2.359  10.819
-0.0764 -24.401  -2.662   9.963
-0.0764 -23.004  -3.013  12.228
-0.0764 -24.622  -4.231  10.014
-0.0764 -23.290  -4.520  12.192
-0.0764 -24.615  -4.774  11.474
0.0382  -22.882  -1.311  10.978
0.0382  -22.288  -2.949  10.306
0.0382  -25.299  -2.207  10.345
0.0382  -24.318  -2.185   8.964
0.0382  -23.788  -2.497  12.797
0.0382  -22.019  -2.944  12.695
0.0382  -23.690  -4.601   9.564
0.0382  -25.484  -4.555   9.505
0.0382  -22.437  -5.011  11.734
0.0382  -23.313  -4.953  13.195
0.0382  -24.823  -5.815  11.478
0.0382  -25.509  -4.351  11.903
-0.0764 -20.528  -7.544   0.291
-0.0764 -19.582  -8.349  -0.663
-0.0764 -20.970  -8.284   1.511
-0.0764 -18.343  -8.775   0.127
-0.0764 -19.841  -8.871   2.277
-0.0764 -18.709  -9.567   1.470
0.0382  -21.525  -7.337  -0.207
0.0382  -20.085  -6.591   0.536
0.0382  -20.160  -9.144  -1.179
0.0382  -19.255  -7.800  -1.518
0.0382  -21.755  -9.016   1.285
0.0382  -21.532  -7.606   2.206
0.0382  -17.847  -7.865   0.465
0.0382  -17.572  -9.293  -0.435
0.0382  -19.469  -8.083   2.901
0.0382  -20.219  -9.544   3.056
0.0382  -17.817  -9.724   2.063
0.0382  -19.075 -10.515   1.078
-0.0764 -3.132  -5.612  10.008
-0.0764 -1.710  -5.675   9.481
-0.0764 -3.222  -6.195  11.449
-0.0764 -0.841  -4.706  10.243
-0.0764 -2.264  -5.330  12.357
-0.0764 -0.840  -5.144  11.718
0.0382  -3.861  -6.147   9.297
0.0382  -3.469  -4.536   9.985
0.0382  -1.375  -6.658   9.476
0.0382  -1.717  -5.337   8.427
0.0382  -2.994  -7.278  11.379
0.0382  -4.273  -5.999  11.757
0.0382  -1.368  -3.775  10.196
0.0382  0.165  -4.711   9.741
0.0382  -2.626  -4.326  12.363
0.0382  -2.188  -5.739  13.358
0.0382  -0.181  -4.360  12.311
0.0382  -0.355  -6.090  11.717
-0.0764 -2.899 -21.904   7.849
-0.0764 -3.184 -22.716   6.522
-0.0764 -3.775 -22.235   9.026
-0.0764 -3.282 -24.231   6.736
-0.0764 -3.799 -23.757   9.282
-0.0764 -4.195 -24.560   7.999
0.0382  -2.962 -20.891   7.620
0.0382  -1.891 -22.155   8.123
0.0382  -4.159 -22.360   6.005
0.0382  -2.360 -22.443   5.839
0.0382  -4.783 -21.951   8.881
0.0382  -3.401 -21.549   9.867
0.0382  -2.255 -24.520   7.119
0.0382  -3.400 -24.886   5.838
0.0382  -2.741 -24.051   9.516
0.0382  -4.495 -24.094  10.129
0.0382  -4.161 -25.680   8.329
0.0382  -5.255 -24.324   7.726
-0.0764 -12.864   6.395  10.585
-0.0764 -13.491   5.040  10.060
-0.0764 -13.973   7.509  10.887
-0.0764 -14.758   4.608  10.911
-0.0764 -15.135   7.043  11.724
-0.0764 -15.741   5.723  11.202
0.0382  -12.185   6.809   9.871
0.0382  -12.333   6.188  11.602
0.0382  -13.778   5.342   9.047
0.0382  -12.688   4.334   9.936
0.0382  -14.325   7.840   9.919
0.0382  -13.384   8.308  11.344
0.0382  -14.460   4.223  11.857
0.0382  -15.339   3.758  10.424
0.0382  -14.677   6.975  12.742
0.0382  -15.992   7.739  11.791
0.0382  -16.562   5.388  11.920
0.0382  -16.264   5.881  10.249
-0.0764 -10.834 -10.616   5.422
-0.0764 -10.222  -9.526   4.593
-0.0764 -9.974 -10.920   6.657
-0.0764 -9.917  -8.301   5.357
-0.0764 -9.566  -9.642   7.425
-0.0764 -8.938  -8.530   6.516
0.0382  -10.994 -11.423   4.703
0.0382  -11.810 -10.272   5.815
0.0382  -9.279  -9.939   4.142
0.0382  -10.906  -9.233   3.751
0.0382  -9.098 -11.369   6.282
0.0382  -10.566 -11.558   7.332
0.0382  -10.835  -7.849   5.681
0.0382  -9.478  -7.571   4.650
0.0382  -10.499  -9.346   7.951
0.0382  -8.819  -9.986   8.163
0.0382  -8.788  -7.629   7.047
0.0382  -7.938  -8.870   6.224
-0.0764 6.943 -10.855  17.042
-0.0764 7.636 -10.940  15.706
-0.0764 5.510 -11.480  17.051
-0.0764 7.656 -12.386  15.179
-0.0764 5.527 -12.944  16.500
-0.0764 6.341 -13.026  15.122
0.0382  6.896  -9.817  17.306
0.0382  7.484 -11.401  17.880
0.0382  7.017 -10.201  15.085
0.0382  8.648 -10.473  15.830
0.0382  4.837 -10.819  16.421
0.0382  5.100 -11.411  18.062
0.0382  8.266 -13.015  15.786
0.0382  8.105 -12.415  14.187
0.0382  6.065 -13.585  17.168
0.0382  4.572 -13.314  16.412
0.0382  6.506 -14.093  14.879
0.0382  5.789 -12.594  14.298
-0.0764 -8.386   2.078  19.969
-0.0764 -9.710   2.783  19.703
-0.0764 -7.544   2.135  18.721
-0.0764 -9.507   4.211  19.205
-0.0764 -7.236   3.503  18.192
-0.0764 -8.544   4.385  18.029
0.0382  -8.529   1.017  20.242
0.0382  -7.838   2.632  20.780
0.0382  -10.276   2.193  18.962
0.0382  -10.253   2.788  20.644
0.0382  -7.948   1.469  17.963
0.0382  -6.650   1.712  19.018
0.0382  -9.318   4.914  20.053
0.0382  -10.488   4.661  18.889
0.0382  -6.648   4.012  18.912
0.0382  -6.693   3.454  17.224
0.0382  -8.335   5.464  18.093
0.0382  -8.984   4.222  17.090
-0.0764 14.413  -6.000  19.254
-0.0764 14.375  -4.943  20.352
-0.0764 15.423  -5.669  18.100
-0.0764 15.774  -4.685  20.926
-0.0764 16.804  -5.331  18.565
-0.0764 16.744  -4.372  19.814
0.0382  13.411  -6.184  19.018
0.0382  14.627  -6.989  19.715
0.0382  14.023  -4.005  20.008
0.0382  13.726  -5.211  21.139
0.0382  15.164  -4.792  17.589
0.0382  15.449  -6.496  17.454
0.0382  16.116  -5.583  21.619
0.0382  15.812  -3.857  21.635
0.0382  17.383  -6.237  18.640
0.0382  17.327  -4.791  17.761
0.0382  17.785  -4.352  20.165
0.0382  16.528  -3.326  19.515
-0.0764 -14.448   0.653   5.195
-0.0764 -14.443   1.476   6.454
-0.0764 -14.294  -0.853   5.371
-0.0764 -15.355   1.010   7.553
-0.0764 -15.308  -1.311   6.477
-0.0764 -15.336  -0.478   7.774
0.0382  -13.666   1.034   4.509
0.0382  -15.408   0.807   4.735
0.0382  -13.410   1.644   6.736
0.0382  -14.763   2.513   6.208
0.0382  -13.250  -1.150   5.579
0.0382  -14.556  -1.299   4.455
0.0382  -16.380   1.120   7.171
0.0382  -15.224   1.654   8.417
0.0382  -16.299  -1.371   6.049
0.0382  -15.003  -2.368   6.728
0.0382  -16.241  -0.769   8.368
0.0382  -14.454  -0.665   8.455
-0.0764 13.036 -11.439   2.849
-0.0764 11.744 -10.953   3.506
-0.0764 13.533 -10.452   1.757
-0.0764 11.983  -9.631   4.175
-0.0764 13.462  -9.003   2.227
-0.0764 12.268  -8.609   3.060
0.0382  13.037 -12.459   2.434
0.0382  13.685 -11.514   3.668
0.0382  10.994 -10.758   2.698
0.0382  11.359 -11.699   4.164
0.0382  12.806 -10.562   0.900
0.0382  14.446 -10.721   1.464
0.0382  12.839  -9.670   4.836
0.0382  11.090  -9.252   4.744
0.0382  14.350  -9.006   2.869
0.0382  13.468  -8.309   1.396
0.0382  12.288  -7.622   3.443
0.0382  11.477  -8.628   2.392
-0.0764 18.756 -11.640   4.509
-0.0764 18.105 -10.395   3.816
-0.0764 17.830 -12.837   4.495
-0.0764 17.543 -10.703   2.385
-0.0764 17.341 -13.143   3.059
-0.0764 16.633 -11.937   2.358
0.0382  18.937 -11.356   5.518
0.0382  19.649 -11.899   3.976
0.0382  17.299 -10.073   4.518
0.0382  18.840  -9.665   3.773
0.0382  17.050 -12.495   5.169
0.0382  18.239 -13.756   4.945
0.0382  18.361 -10.837   1.661
0.0382  17.008  -9.771   2.073
0.0382  18.185 -13.568   2.493
0.0382  16.572 -13.940   3.159
0.0382  16.335 -12.088   1.353
0.0382  15.769 -11.691   2.950
-0.0764 -6.886 -18.428   7.082
-0.0764 -6.243 -19.817   6.591
-0.0764 -6.406 -17.191   6.263
-0.0764 -6.327 -20.007   5.131
-0.0764 -6.503 -17.459   4.766
-0.0764 -5.820 -18.790   4.388
0.0382  -6.741 -18.327   8.151
0.0382  -7.957 -18.506   7.068
0.0382  -5.192 -19.848   6.907
0.0382  -6.772 -20.633   7.084
0.0382  -5.408 -16.913   6.612
0.0382  -7.026 -16.343   6.529
0.0382  -7.343 -20.210   4.787
0.0382  -5.724 -20.918   4.840
0.0382  -7.564 -17.497   4.554
0.0382  -6.136 -16.583   4.198
0.0382  -5.995 -18.969   3.280
0.0382  -4.757 -18.726   4.499
-0.0764 -4.331  10.709   6.088
-0.0764 -5.312   9.934   7.039
-0.0764 -4.429  10.153   4.636
-0.0764 -6.761   9.809   6.460
-0.0764 -5.906  10.069   4.080
-0.0764 -6.818   9.288   4.983
0.0382  -3.333  10.816   6.458
0.0382  -4.754  11.808   6.068
0.0382  -4.716   9.035   7.079
0.0382  -5.380  10.561   7.979
0.0382  -4.029   9.123   4.661
0.0382  -3.776  10.738   4.056
0.0382  -7.201  10.829   6.402
0.0382  -7.423   9.169   7.069
0.0382  -6.293  11.075   3.772
0.0382  -5.779   9.599   3.109
0.0382  -7.835   9.290   4.646
0.0382  -6.487   8.291   4.894
-0.0764 -6.272  -3.644  18.501
-0.0764 -5.357  -3.078  17.288
-0.0764 -5.503  -4.368  19.653
-0.0764 -4.319  -2.201  17.935
-0.0764 -4.424  -3.422  20.208
-0.0764 -3.546  -2.965  19.104
0.0382  -7.060  -4.348  18.172
0.0382  -6.747  -2.709  18.896
0.0382  -4.915  -3.929  16.815
0.0382  -5.983  -2.572  16.542
0.0382  -4.992  -5.256  19.337
0.0382  -6.262  -4.611  20.428
0.0382  -4.821  -1.318  18.378
0.0382  -3.575  -1.892  17.172
0.0382  -4.802  -2.455  20.699
0.0382  -3.836  -3.863  21.049
0.0382  -2.847  -2.189  19.390
0.0382  -2.974  -3.841  18.749
-0.0764 -10.180  -4.074 -14.771
-0.0764 -9.407  -5.301 -14.233
-0.0764 -11.678  -4.231 -14.827
-0.0764 -10.025  -5.874 -12.966
-0.0764 -12.223  -4.818 -13.511
-0.0764 -11.511  -6.091 -13.126
0.0382  -9.860  -3.821 -15.813
0.0382  -9.957  -3.196 -14.102
0.0382  -9.218  -6.066 -15.015
0.0382  -8.368  -4.942 -14.005
0.0382  -11.929  -4.995 -15.602
0.0382  -12.160  -3.294 -15.104
0.0382  -9.850  -5.207 -12.156
0.0382  -9.564  -6.793 -12.745
0.0382  -12.115  -3.994 -12.747
0.0382  -13.311  -5.180 -13.491
0.0382  -11.850  -6.412 -12.180
0.0382  -11.681  -6.872 -13.812
-0.0764 14.573   3.834   6.082
-0.0764 14.866   2.457   6.779
-0.0764 15.821   4.623   5.724
-0.0764 16.014   1.671   6.153
-0.0764 16.886   3.745   4.965
-0.0764 17.307   2.483   5.814
0.0382  13.918   4.377   6.775
0.0382  14.067   3.639   5.190
0.0382  15.242   2.599   7.778
0.0382  13.886   1.937   6.930
0.0382  16.285   4.997   6.575
0.0382  15.506   5.576   5.282
0.0382  15.687   1.255   5.236
0.0382  16.337   0.790   6.780
0.0382  16.458   3.580   3.953
0.0382  17.754   4.326   4.772
0.0382  18.032   1.992   5.169
0.0382  17.963   2.863   6.631
-0.0764 -7.622  13.296  17.141
-0.0764 -8.589  12.233  16.638
-0.0764 -6.884  13.927  16.051
-0.0764 -9.586  12.814  15.682
-0.0764 -7.792  14.444  14.915
-0.0764 -8.829  13.382  14.452
0.0382  -6.898  12.856  17.816
0.0382  -8.225  14.079  17.651
0.0382  -8.067  11.397  16.192
0.0382  -9.129  11.880  17.525
0.0382  -6.177  13.151  15.667
0.0382  -6.300  14.760  16.418
0.0382  -10.195  13.559  16.243
0.0382  -10.274  12.094  15.448
0.0382  -8.247  15.424  15.196
0.0382  -7.162  14.809  14.024
0.0382  -9.551  13.832  13.739
0.0382  -8.376  12.605  13.803
-0.0764 7.911 -19.111  -7.345
-0.0764 8.780 -19.614  -8.532
-0.0764 6.549 -18.713  -7.913
-0.0764 8.101 -20.704  -9.380
-0.0764 5.815 -19.806  -8.605
-0.0764 6.662 -20.263  -9.846
0.0382  8.493 -18.275  -6.872
0.0382  7.815 -19.956  -6.611
0.0382  9.087 -18.761  -9.008
0.0382  9.734 -19.972  -8.097
0.0382  6.697 -17.894  -8.626
0.0382  5.955 -18.169  -7.182
0.0382  8.023 -21.653  -8.834
0.0382  8.739 -20.952 -10.257
0.0382  5.656 -20.597  -7.879
0.0382  4.843 -19.450  -8.854
0.0382  6.159 -21.045 -10.478
0.0382  6.726 -19.393 -10.505
-0.0764 0.878  -7.934  13.992
-0.0764 1.433  -8.359  12.639
-0.0764 -0.447  -8.636  14.174
-0.0764 1.619  -9.862  12.555
-0.0764 -0.314 -10.126  14.115
-0.0764 0.392 -10.663  12.862
0.0382  0.723  -6.836  14.056
0.0382  1.571  -8.105  14.780
0.0382  0.812  -7.893  11.773
0.0382  2.391  -7.899  12.497
0.0382  -1.136  -8.293  13.369
0.0382  -0.743  -8.303  15.206
0.0382  2.351 -10.116  13.297
0.0382  1.965 -10.126  11.551
0.0382  0.147 -10.622  14.994
0.0382  -1.364 -10.639  13.967
0.0382  0.631 -11.716  12.966
0.0382  -0.350 -10.511  12.065
-0.0764 -13.936  -5.113   9.761
-0.0764 -14.095  -4.998  11.300
-0.0764 -12.526  -4.838   9.286
-0.0764 -12.813  -5.521  12.113
-0.0764 -11.373  -5.416  10.118
-0.0764 -11.528  -4.938  11.626
0.0382  -14.736  -4.506   9.348
0.0382  -14.143  -6.205   9.531
0.0382  -14.176  -3.902  11.554
0.0382  -14.918  -5.568  11.670
0.0382  -12.274  -3.830   9.263
0.0382  -12.489  -5.133   8.239
0.0382  -12.616  -6.620  12.032
0.0382  -13.052  -5.158  13.139
0.0382  -11.250  -6.463  10.052
0.0382  -10.500  -5.005   9.679
0.0382  -10.660  -5.409  12.128
0.0382  -11.390  -3.858  11.721
-0.0764 10.736   1.259  11.316
-0.0764 10.292   1.905  12.656
-0.0764 12.210   1.745  10.976
-0.0764 11.331   1.641  13.789
-0.0764 13.239   1.554  12.098
-0.0764 12.686   2.213  13.361
0.0382  9.999   1.613  10.569
0.0382  10.728   0.114  11.344
0.0382  10.210   3.012  12.492
0.0382  9.255   1.512  12.946
0.0382  12.012   2.811  10.854
0.0382  12.553   1.225  10.024
0.0382  11.346   0.571  13.945
0.0382  11.102   2.165  14.728
0.0382  13.382   0.488  12.250
0.0382  14.206   2.014  11.842
0.0382  13.470   2.021  14.168
0.0382  12.569   3.349  13.260
-0.0764 15.851  10.220   4.560
-0.0764 16.668  11.043   3.541
-0.0764 16.156   8.681   4.656
-0.0764 18.100  10.646   3.702
-0.0764 17.645   8.291   4.571
-0.0764 18.392   9.121   3.526
0.0382  14.808  10.457   4.277
0.0382  16.008  10.716   5.547
0.0382  16.232  10.772   2.549
0.0382  16.547  12.106   3.704
0.0382  15.545   8.280   3.865
0.0382  15.753   8.305   5.574
0.0382  18.372  11.000   4.699
0.0382  18.785  11.195   3.079
0.0382  18.112   8.526   5.541
0.0382  17.798   7.228   4.237
0.0382  19.431   8.887   3.489
0.0382  18.002   8.785   2.579
-0.0764 -4.614   5.314   8.166
-0.0764 -6.135   5.558   8.203
-0.0764 -4.078   5.149   9.628
-0.0764 -6.964   4.610   9.105
-0.0764 -4.885   4.050  10.410
-0.0764 -6.409   4.408  10.465
0.0382  -4.126   6.182   7.740
0.0382  -4.379   4.367   7.620
0.0382  -6.357   6.598   8.486
0.0382  -6.492   5.581   7.161
0.0382  -4.119   6.173  10.124
0.0382  -3.005   4.799   9.633
0.0382  -7.027   3.641   8.571
0.0382  -7.978   4.970   9.258
0.0382  -4.742   3.017   9.989
0.0382  -4.478   3.982  11.405
0.0382  -6.965   3.580  10.951
0.0382  -6.576   5.278  11.087
-0.0764 -8.221  -8.255 -24.194
-0.0764 -7.570  -8.842 -22.923
-0.0764 -7.306  -7.243 -24.869
-0.0764 -6.193  -9.502 -23.289
-0.0764 -5.886  -7.880 -25.193
-0.0764 -5.288  -8.438 -23.887
0.0382  -9.213  -7.679 -24.112
0.0382  -8.372  -9.047 -24.858
0.0382  -7.518  -7.987 -22.247
0.0382  -8.260  -9.566 -22.406
0.0382  -7.144  -6.384 -24.242
0.0382  -7.766  -6.953 -25.842
0.0382  -6.295 -10.403 -23.931
0.0382  -5.680  -9.926 -22.443
0.0382  -5.981  -8.663 -25.903
0.0382  -5.201  -7.081 -25.544
0.0382  -4.390  -8.909 -24.146
0.0382  -5.005  -7.634 -23.149
-0.0764 7.050  -6.401  10.076
-0.0764 5.854  -5.681  10.735
-0.0764 6.535  -7.522   9.108
-0.0764 4.791  -5.211   9.696
-0.0764 5.539  -6.918   8.051
-0.0764 4.331  -6.269   8.800
0.0382  7.661  -6.849  10.872
0.0382  7.593  -5.713   9.494
0.0382  5.361  -6.367  11.416
0.0382  6.135  -4.822  11.350
0.0382  5.999  -8.276   9.643
0.0382  7.362  -7.957   8.609
0.0382  5.142  -4.402   9.052
0.0382  3.880  -4.864  10.247
0.0382  5.976  -6.076   7.561
0.0382  5.386  -7.722   7.294
0.0382  3.611  -5.890   8.143
0.0382  3.926  -7.172   9.330
-0.0764 -7.312 -14.077   8.736
-0.0764 -8.383 -13.261   9.411
-0.0764 -6.953 -15.358   9.482
-0.0764 -9.690 -14.052   9.571
-0.0764 -8.213 -16.221   9.714
-0.0764 -9.399 -15.429  10.271
0.0382  -6.474 -13.391   8.466
0.0382  -7.769 -14.296   7.729
0.0382  -7.977 -12.836  10.320
0.0382  -8.553 -12.381   8.757
0.0382  -6.509 -15.111  10.502
0.0382  -6.267 -16.044   8.975
0.0382  -10.223 -14.303   8.612
0.0382  -10.517 -13.491  10.060
0.0382  -8.468 -16.697   8.742
0.0382  -7.975 -17.138  10.321
0.0382  -10.325 -16.015  10.339
0.0382  -9.122 -15.097  11.271
-0.0764 5.349  -5.357  14.526
-0.0764 5.344  -6.106  15.912
-0.0764 6.566  -4.437  14.429
-0.0764 6.761  -6.868  16.085
-0.0764 7.985  -5.092  14.642
-0.0764 7.954  -5.948  15.963
0.0382  4.411  -4.828  14.376
0.0382  5.403  -6.142  13.754
0.0382  5.209  -5.391  16.708
0.0382  4.519  -6.809  16.017
0.0382  6.473  -3.696  15.226
0.0382  6.578  -3.935  13.431
0.0382  6.825  -7.660  15.366
0.0382  6.771  -7.254  17.105
0.0382  8.302  -5.672  13.770
0.0382  8.734  -4.295  14.796
0.0382  8.896  -6.471  16.037
0.0382  7.886  -5.313  16.910
-0.0764 -14.022 -12.120   1.110
-0.0764 -14.253 -10.724   0.482
-0.0764 -12.957 -12.900   0.315
-0.0764 -12.896  -9.929   0.336
-0.0764 -11.637 -12.073   0.084
-0.0764 -11.961 -10.702  -0.552
0.0382  -14.974 -12.685   1.247
0.0382  -13.455 -11.977   2.080
0.0382  -14.923 -10.891  -0.360
0.0382  -14.793 -10.067   1.132
0.0382  -13.206 -13.243  -0.697
0.0382  -12.743 -13.820   0.875
0.0382  -12.408  -9.888   1.384
0.0382  -13.043  -8.925  -0.053
0.0382  -10.983 -12.064   1.034
0.0382  -10.984 -12.642  -0.587
0.0382  -10.978 -10.186  -0.644
0.0382  -12.460 -10.888  -1.521
-0.0764 14.507  -1.939   9.354
-0.0764 14.356  -3.035  10.449
-0.0764 15.448  -0.824   9.748
-0.0764 15.768  -3.590  10.655
-0.0764 16.910  -1.369  10.038
-0.0764 16.826  -2.504  11.051
0.0382  13.535  -1.412   9.158
0.0382  14.824  -2.402   8.423
0.0382  14.081  -2.589  11.406
0.0382  13.653  -3.775  10.206
0.0382  15.103  -0.301  10.665
0.0382  15.526  -0.061   8.925
0.0382  16.146  -4.021   9.742
0.0382  15.807  -4.312  11.515
0.0382  17.306  -1.733   9.086
0.0382  17.684  -0.634  10.393
0.0382  17.843  -2.958  11.167
0.0382  16.462  -2.066  11.994
-0.0764 -3.099  17.009   8.701
-0.0764 -3.506  16.404   7.349
-0.0764 -4.248  16.845   9.780
-0.0764 -4.075  15.021   7.458
-0.0764 -4.821  15.401   9.875
-0.0764 -5.181  14.909   8.497
0.0382  -2.733  18.003   8.587
0.0382  -2.196  16.424   9.027
0.0382  -4.210  17.156   7.007
0.0382  -2.723  16.433   6.598
0.0382  -5.085  17.468   9.419
0.0382  -3.932  17.060  10.839
0.0382  -3.305  14.197   7.657
0.0382  -4.544  14.772   6.547
0.0382  -4.063  14.706  10.294
0.0382  -5.636  15.306  10.573
0.0382  -5.639  13.885   8.466
0.0382  -6.048  15.524   8.063
-0.0764 -21.892   7.442 -12.135
-0.0764 -22.751   6.231 -12.072
-0.0764 -21.699   7.829 -10.632
-0.0764 -22.294   4.988 -11.296
-0.0764 -21.137   6.673  -9.768
-0.0764 -21.963   5.342  -9.836
0.0382  -22.424   8.171 -12.713
0.0382  -20.967   7.226 -12.638
0.0382  -23.753   6.499 -11.774
0.0382  -22.857   5.945 -13.093
0.0382  -22.638   8.207 -10.205
0.0382  -21.025   8.680 -10.502
0.0382  -21.350   4.543 -11.743
0.0382  -23.072   4.297 -11.376
0.0382  -20.127   6.410 -10.058
0.0382  -20.987   7.010  -8.747
0.0382  -21.365   4.519  -9.333
0.0382  -22.838   5.497  -9.292
-0.0764 -19.858 -14.029  -3.243
-0.0764 -19.233 -12.665  -2.778
-0.0764 -18.762 -15.043  -3.692
-0.0764 -18.253 -12.809  -1.621
-0.0764 -17.746 -15.204  -2.512
-0.0764 -17.169 -13.838  -2.023
0.0382  -20.508 -13.785  -4.063
0.0382  -20.455 -14.520  -2.445
0.0382  -18.797 -12.120  -3.618
0.0382  -20.010 -11.928  -2.411
0.0382  -18.169 -14.639  -4.503
0.0382  -19.288 -15.939  -4.002
0.0382  -18.806 -13.126  -0.769
0.0382  -17.819 -11.784  -1.401
0.0382  -18.180 -15.750  -1.706
0.0382  -16.888 -15.858  -2.819
0.0382  -16.402 -14.076  -1.276
0.0382  -16.490 -13.376  -2.814
-0.0764 1.626 -23.731  11.695
-0.0764 2.463 -23.062  12.863
-0.0764 0.075 -23.617  11.815
-0.0764 1.982 -21.607  13.055
-0.0764 -0.335 -22.126  11.971
-0.0764 0.430 -21.383  13.101
0.0382  1.870 -24.769  11.680
0.0382  1.991 -23.314  10.802
0.0382  2.314 -23.623  13.819
0.0382  3.556 -23.034  12.713
0.0382  -0.317 -24.215  12.630
0.0382  -0.407 -23.981  10.928
0.0382  2.315 -21.045  12.166
0.0382  2.557 -21.061  13.795
0.0382  -0.142 -21.532  11.059
0.0382  -1.398 -22.055  12.154
0.0382  0.198 -20.296  12.991
0.0382  0.056 -21.740  14.136
-0.0764 -3.749  10.183  14.224
-0.0764 -3.492   9.729  12.743
-0.0764 -3.648  11.697  14.259
-0.0764 -4.599  10.202  11.789
-0.0764 -4.675  12.348  13.246
-0.0764 -4.653  11.733  11.857
0.0382  -3.023   9.678  14.854
0.0382  -4.692   9.864  14.558
0.0382  -2.608  10.224  12.431
0.0382  -3.378   8.666  12.673
0.0382  -2.611  11.973  13.877
0.0382  -3.783  12.190  15.260
0.0382  -5.521   9.895  12.262
0.0382  -4.574   9.859  10.692
0.0382  -5.717  12.175  13.523
0.0382  -4.526  13.460  13.260
0.0382  -5.436  12.143  11.158
0.0382  -3.681  12.093  11.551
-0.0764 -10.269   3.042  14.996
-0.0764 -11.340   2.722  13.893
-0.0764 -8.891   3.410  14.403
-0.0764 -11.453   3.843  12.902
-0.0764 -8.997   4.587  13.402
-0.0764 -10.060   4.201  12.309
0.0382  -10.138   2.138  15.614
0.0382  -10.620   3.856  15.672
0.0382  -11.060   1.801  13.439
0.0382  -12.411   2.618  14.298
0.0382  -8.441   2.526  13.875
0.0382  -8.207   3.637  15.208
0.0382  -11.805   4.697  13.443
0.0382  -12.152   3.675  12.105
0.0382  -9.283   5.486  13.936
0.0382  -7.969   4.818  12.958
0.0382  -10.157   5.110  11.700
0.0382  -9.657   3.409  11.744
-0.0764 -18.244  -4.084  10.173
-0.0764 -18.564  -3.206   8.940
-0.0764 -19.473  -4.879  10.630
-0.0764 -19.278  -3.952   7.809
-0.0764 -20.063  -5.698   9.423
-0.0764 -20.493  -4.689   8.391
0.0382  -17.928  -3.428  10.965
0.0382  -17.435  -4.792   9.926
0.0382  -19.233  -2.352   9.205
0.0382  -17.600  -2.805   8.622
0.0382  -20.273  -4.192  10.889
0.0382  -19.466  -5.454  11.563
0.0382  -18.585  -4.686   7.350
0.0382  -19.545  -3.236   6.984
0.0382  -19.285  -6.388   9.072
0.0382  -20.989  -6.184   9.790
0.0382  -20.941  -5.254   7.579
0.0382  -21.348  -4.027   8.730
-0.0764 -8.275  -4.346   6.644
-0.0764 -7.364  -3.986   7.836
-0.0764 -7.567  -4.589   5.391
-0.0764 -6.362  -5.151   8.095
-0.0764 -6.541  -5.705   5.582
-0.0764 -5.607  -5.539   6.782
0.0382  -9.138  -3.645   6.402
0.0382  -8.867  -5.210   6.886
0.0382  -7.016  -3.007   7.908
0.0382  -7.988  -4.055   8.663
0.0382  -7.124  -3.697   4.989
0.0382  -8.313  -4.861   4.634
0.0382  -6.932  -6.054   8.504
0.0382  -5.596  -4.808   8.813
0.0382  -6.976  -6.728   5.666
0.0382  -5.964  -5.718   4.727
0.0382  -4.989  -6.447   6.844
0.0382  -4.965  -4.722   6.477
-0.0764 0.080  -4.270   4.173
-0.0764 -1.271  -3.527   4.137
-0.0764 0.055  -5.472   5.207
-0.0764 -2.407  -4.512   3.867
-0.0764 -1.050  -6.484   4.771
-0.0764 -2.486  -5.834   4.704
0.0382  0.848  -3.517   4.439
0.0382  0.418  -4.573   3.250
0.0382  -1.410  -2.905   5.057
0.0382  -1.198  -2.855   3.304
0.0382  -0.054  -5.089   6.220
0.0382  1.041  -5.988   5.128
0.0382  -2.329  -4.814   2.742
0.0382  -3.420  -4.000   4.037
0.0382  -0.792  -6.825   3.818
0.0382  -1.033  -7.403   5.413
0.0382  -3.239  -6.586   4.285
0.0382  -2.849  -5.584   5.724
-0.0764 -5.346 -10.742   9.883
-0.0764 -4.846  -9.436  10.553
-0.0764 -4.512 -12.000  10.087
-0.0764 -4.546  -9.718  12.023
-0.0764 -4.051 -12.148  11.594
-0.0764 -3.481 -10.816  12.096
0.0382  -5.636 -10.539   8.896
0.0382  -6.279 -11.007  10.343
0.0382  -3.964  -9.151   9.966
0.0382  -5.685  -8.723  10.587
0.0382  -3.683 -11.972   9.428
0.0382  -5.008 -12.936   9.888
0.0382  -5.496  -9.995  12.431
0.0382  -4.228  -8.874  12.573
0.0382  -4.862 -12.538  12.208
0.0382  -3.185 -12.872  11.647
0.0382  -3.192 -11.064  13.141
0.0382  -2.585 -10.499  11.624
-0.0764 -16.415  10.649   9.478
-0.0764 -15.970  12.031  10.001
-0.0764 -16.189  10.520   7.930
-0.0764 -14.469  12.165   9.852
-0.0764 -14.718  10.849   7.675
-0.0764 -14.329  12.186   8.282
0.0382  -17.491  10.579   9.627
0.0382  -15.949   9.836  10.026
0.0382  -16.360  12.866   9.358
0.0382  -16.218  12.180  11.064
0.0382  -16.796  11.137   7.313
0.0382  -16.360   9.446   7.686
0.0382  -13.935  11.297  10.338
0.0382  -14.168  13.104  10.344
0.0382  -14.024  10.040   7.971
0.0382  -14.601  10.893   6.572
0.0382  -13.250  12.290   8.082
0.0382  -14.767  13.023   7.742
-0.0764 -22.554  -8.261   7.531
-0.0764 -21.782  -8.029   6.269
-0.0764 -23.241  -9.693   7.591
-0.0764 -20.778  -9.255   5.943
-0.0764 -22.323 -10.851   7.314
-0.0764 -21.504 -10.597   5.973
0.0382  -23.370  -7.468   7.555
0.0382  -21.963  -8.051   8.410
0.0382  -22.339  -7.793   5.370
0.0382  -21.197  -7.038   6.400
0.0382  -24.171  -9.899   6.976
0.0382  -23.578  -9.960   8.553
0.0382  -20.033  -9.215   6.762
0.0382  -20.187  -9.131   5.008
0.0382  -21.665 -11.020   8.140
0.0382  -22.966 -11.720   7.071
0.0382  -20.763 -11.369   5.910
0.0382  -22.252 -10.668   5.173
-0.0764 -7.592  -8.595 -15.912
-0.0764 -6.526  -9.734 -16.068
-0.0764 -7.947  -7.950 -17.292
-0.0764 -7.141 -10.824 -17.050
-0.0764 -8.509  -8.967 -18.255
-0.0764 -7.705 -10.226 -18.341
0.0382  -7.034  -7.799 -15.350
0.0382  -8.560  -8.831 -15.342
0.0382  -5.545  -9.425 -16.452
0.0382  -6.385 -10.149 -15.077
0.0382  -6.990  -7.606 -17.681
0.0382  -8.689  -7.087 -17.167
0.0382  -7.956 -11.321 -16.479
0.0382  -6.415 -11.529 -17.309
0.0382  -9.485  -9.268 -17.946
0.0382  -8.670  -8.632 -19.239
0.0382  -8.251 -11.011 -18.939
0.0382  -6.842  -9.982 -19.024
-0.0764 -10.429 -19.409  -2.235
-0.0764 -11.489 -19.359  -1.106
-0.0764 -9.095 -18.833  -1.739
-0.0764 -10.917 -19.884   0.190
-0.0764 -8.559 -19.525  -0.510
-0.0764 -9.485 -19.570   0.632
0.0382  -10.782 -18.786  -2.937
0.0382  -10.299 -20.376  -2.735
0.0382  -11.911 -18.364  -1.080
0.0382  -12.316 -20.022  -1.329
0.0382  -9.258 -17.760  -1.607
0.0382  -8.364 -19.028  -2.521
0.0382  -11.068 -20.985   0.201
0.0382  -11.496 -19.528   1.018
0.0382  -8.212 -20.530  -0.721
0.0382  -7.682 -18.998  -0.217
0.0382  -9.170 -20.365   1.400
0.0382  -9.542 -18.584   1.150
-0.0764 10.461 -10.253  -5.458
-0.0764 9.773 -11.566  -5.943
-0.0764 11.897 -10.461  -4.962
-0.0764 10.573 -12.264  -7.041
-0.0764 12.691 -11.072  -6.151
-0.0764 12.153 -12.414  -6.607
0.0382  9.857  -9.686  -4.715
0.0382  10.412  -9.480  -6.274
0.0382  9.664 -12.317  -5.110
0.0382  8.778 -11.325  -6.218
0.0382  11.902 -11.161  -4.075
0.0382  12.303  -9.477  -4.698
0.0382  10.526 -11.666  -7.958
0.0382  10.143 -13.278  -7.170
0.0382  12.588 -10.484  -7.057
0.0382  13.776 -11.251  -5.927
0.0382  12.764 -12.673  -7.514
0.0382  12.366 -13.140  -5.873
-0.0764 -15.486 -10.546  -6.956
-0.0764 -16.464  -9.490  -6.421
-0.0764 -14.124 -10.458  -6.283
-0.0764 -16.746  -9.670  -4.888
-0.0764 -14.348 -10.685  -4.735
-0.0764 -15.376  -9.720  -4.120
0.0382  -15.394 -10.580  -8.008
0.0382  -15.975 -11.452  -6.537
0.0382  -15.993  -8.576  -6.496
0.0382  -17.391  -9.453  -6.983
0.0382  -13.692  -9.507  -6.469
0.0382  -13.437 -11.264  -6.640
0.0382  -17.345 -10.505  -4.605
0.0382  -17.312  -8.776  -4.504
0.0382  -14.791 -11.726  -4.528
0.0382  -13.412 -10.706  -4.212
0.0382  -15.508 -10.011  -3.110
0.0382  -14.933  -8.659  -4.232
-0.0764 -9.298   4.244  -0.621
-0.0764 -8.040   3.444  -0.260
-0.0764 -9.281   4.308  -2.187
-0.0764 -7.905   2.081  -1.007
-0.0764 -9.287   2.988  -2.882
-0.0764 -7.984   2.216  -2.531
0.0382  -9.289   5.259  -0.149
0.0382  -10.268   3.717  -0.300
0.0382  -7.103   3.974  -0.365
0.0382  -7.990   3.360   0.872
0.0382  -8.456   4.906  -2.580
0.0382  -10.204   4.863  -2.541
0.0382  -8.729   1.448  -0.673
0.0382  -6.941   1.614  -0.706
0.0382  -10.193   2.370  -2.687
0.0382  -9.397   3.259  -3.928
0.0382  -7.823   1.250  -3.055
0.0382  -7.151   2.858  -2.742
-0.0764 4.450  -2.671 -17.800
-0.0764 5.112  -2.467 -16.462
-0.0764 4.080  -1.311 -18.401
-0.0764 6.345  -1.668 -16.613
-0.0764 5.345  -0.465 -18.588
-0.0764 6.123  -0.340 -17.334
0.0382  3.595  -3.373 -17.641
0.0382  5.201  -3.206 -18.418
0.0382  4.331  -1.986 -15.926
0.0382  5.356  -3.470 -16.071
0.0382  3.356  -0.846 -17.765
0.0382  3.579  -1.504 -19.350
0.0382  7.071  -2.345 -17.097
0.0382  6.663  -1.407 -15.627
0.0382  5.984  -0.983 -19.391
0.0382  5.036   0.554 -18.913
0.0382  7.061   0.136 -17.488
0.0382  5.502   0.255 -16.602
-0.0764 15.577 -11.643  11.310
-0.0764 15.915 -10.487  12.267
-0.0764 16.355 -11.563   9.978
-0.0764 17.433 -10.549  12.536
-0.0764 17.907 -11.583  10.224
-0.0764 18.241 -10.395  11.152
0.0382  14.489 -11.725  11.108
0.0382  15.923 -12.538  11.853
0.0382  15.610  -9.523  11.716
0.0382  15.452 -10.657  13.240
0.0382  15.924 -10.692   9.412
0.0382  16.064 -12.411   9.400
0.0382  17.671 -11.387  13.160
0.0382  17.776  -9.669  13.103
0.0382  18.222 -12.535  10.649
0.0382  18.487 -11.556   9.222
0.0382  19.379 -10.285  11.263
