564

   0.0382000000000000   2.9918345630279282 -10.3645320667158778 -20.6578160368063273
   0.0382000000000000   1.9209059632482559  -9.5695095428301240 -21.7001702757724644
   0.0382000000000000   2.4570706121183803 -13.1707440086197085 -20.5809331482408844
   0.0382000000000000   0.9324069842942875 -13.5709287859153260 -21.4255216156004025
   0.0382000000000000   0.0789477482085899  -9.8484555705141918 -20.2492637912975688
   0.0382000000000000   1.4232498826871836  -9.1765997334846041 -19.2326130414287846
   0.0382000000000000  -0.4478403422262626 -12.4721203087706467 -19.9085547755070991
   0.0382000000000000   0.5809412082769940 -13.4929683039308568 -18.9494601819180666
   0.0382000000000000   0.1688258356672306 -11.0751749125898389 -18.1746069849077401
   0.0382000000000000   1.9071142007475215 -11.4425031906080648 -18.3100239081188576
  -0.0764000000000000 -13.2558701767132323  14.4091403505101905  -1.2153338935482507
  -0.0764000000000000 -12.9648815144580905  14.5581252387284135  -2.6982985596080167
  -0.0764000000000000 -12.3451747525406450  13.2707059815623847  -0.6658886508675397
  -0.0764000000000000 -11.5844894053972105  15.1302278285794927  -2.8700787742445248
  -0.0764000000000000 -10.8769029262356849  13.6824153266194468  -0.8471555282409258
  -0.0764000000000000 -10.5702406417988737  14.0700175611099851  -2.3063764505903772
   0.0382000000000000 -14.3696907228908746  14.2322939645960425  -1.1279589296779209
   0.0382000000000000 -13.0491718944349060  15.2942747089372109  -0.5622430981793781
   0.0382000000000000 -13.0651974059907126  13.5750960616071641  -3.1725539856518385
   0.0382000000000000 -13.6724554250089820  15.2837777888934490  -3.0744361338866879
   0.0382000000000000 -12.5263068102191646  12.4390771100606425  -1.3219205553970985
   0.0382000000000000 -12.6444101698332148  12.8515048436894048   0.2790928123570535
   0.0382000000000000 -11.5336537198937439  16.1340079097967823  -2.4280867254402465
   0.0382000000000000 -11.3578389589203734  15.1882560929781203  -3.9429112064978771
   0.0382000000000000 -10.6683330400502836  14.5409079604278055  -0.2138329931730696
   0.0382000000000000 -10.2051247535746423  12.8711013898732087  -0.4191248073732478
   0.0382000000000000  -9.5962651808455242  14.5104225746241404  -2.4222406833538206
   0.0382000000000000 -10.5567197855338808  13.2453785789719447  -2.9060312163927775
  -0.0764000000000000  -7.7328887866650815  11.7338456355361505  -8.2466816987946245
  -0.0764000000000000  -6.4772382854571484  10.7955643018197591  -8.2046511690063699
  -0.0764000000000000  -8.8906188306880232  11.1769616598329549  -7.3475538356987693
  -0.0764000000000000  -5.9609472953840443  10.6832626933612485  -6.7672315056339327
  -0.0764000000000000  -8.3888471793857331  11.1816338853748878  -5.8988652707992006
  -0.0764000000000000  -7.1054834816253267  10.2966732067842983  -5.7961395045052724
   0.0382000000000000  -8.0387272166791757  11.8732555227285701  -9.3308243729254325
   0.0382000000000000  -7.4349413777535984  12.7702335102727069  -7.9066230774531716
   0.0382000000000000  -6.7632890934351257   9.8142954840505592  -8.5114692400976466
   0.0382000000000000  -5.7315423055589196  11.0631273975036990  -8.9350201994019489
   0.0382000000000000  -9.2994384947453863  10.1769917472934051  -7.6440316666056631
   0.0382000000000000  -9.7912397554269788  11.8432780169138265  -7.3169180479288665
   0.0382000000000000  -5.4003307962882916  11.5708853903858095  -6.4850778481684257
   0.0382000000000000  -5.2499911893405216   9.8259843985659483  -6.7299305313482680
   0.0382000000000000  -8.0840819887985074  12.2487296334005418  -5.6979088720724915
   0.0382000000000000  -9.1929321113365106  10.9049833510386325  -5.2180811227488375
   0.0382000000000000  -6.7071114853978404  10.2897291445914387  -4.7580340224147877
   0.0382000000000000  -7.3890085857669074   9.2491620701415584  -6.0801681892295241
  -0.0764000000000000 -15.6089243976337535  14.4399850054004784  -5.4326014135625558
  -0.0764000000000000 -15.8946134059790882  14.5040077118324167  -6.9786410055091270
  -0.0764000000000000 -16.8155550900305144  15.0643392453795144  -4.7237453440376118
  -0.0764000000000000 -17.1584421061359258  13.7217399294914877  -7.2397720343773226
  -0.0764000000000000 -18.1344545009210840  14.3622809838005203  -4.9365236734735181
  -0.0764000000000000 -18.3573096450252571  14.2968902041912003  -6.4495358134490068
   0.0382000000000000 -14.6941224863823887  15.0295289709271671  -5.0568012117893977
   0.0382000000000000 -15.6262170576723314  13.4407754673178879  -5.1727129116926607
   0.0382000000000000 -15.9339943218518290  15.5201100965409307  -7.3329082111355746
   0.0382000000000000 -15.0850125635939403  13.9644268056577641  -7.5820916027977008
   0.0382000000000000 -16.8290347595016492  16.0611831989128007  -5.0964158745019503
   0.0382000000000000 -16.5104029788070257  15.2518528133094549  -3.5885315143179248
   0.0382000000000000 -16.9441009489425163  12.6588987409555287  -7.1485297222393243
   0.0382000000000000 -17.3739011802397130  13.8090213331532468  -8.3422903338480765
   0.0382000000000000 -17.9867783180600718  13.3478990506524937  -4.5083211303582562
   0.0382000000000000 -18.9484812154911424  14.9773532804109131  -4.5537517525359625
   0.0382000000000000 -19.2386120746663956  13.7153013307936451  -6.5741696935272351
   0.0382000000000000 -18.5265835346820147  15.2753822646559598  -6.8018839554757449
  -0.0764000000000000 -12.4932827749921103  12.4039980376994006 -16.0655791242700872
  -0.0764000000000000 -13.6929616965852983  11.3583400736031646 -15.8991858032720099
  -0.0764000000000000 -12.8866786825751909  13.6494118156908524 -16.8866405118265277
  -0.0764000000000000 -15.1560607638214648  11.8719379263896538 -15.8912517597976031
  -0.0764000000000000 -14.3745195395509242  14.0900282671265060 -16.8138425623127290
  -0.0764000000000000 -15.3379272048584703  12.9476855016923587 -16.9624784082873674
   0.0382000000000000 -11.6067763580115226  11.8344293927112894 -16.5617606163113109
   0.0382000000000000 -12.1036704365832453  12.6978727074298927 -15.0501830995197103
   0.0382000000000000 -13.7306711715420207  10.6963453555004779 -16.7774813702926338
   0.0382000000000000 -13.5443366330226489  10.7597240397745093 -15.0101576517256667
   0.0382000000000000 -12.6401351804698123  13.3655419559140594 -17.9452136882926467
   0.0382000000000000 -12.2620668235619661  14.4989127203672847 -16.6821500420534932
   0.0382000000000000 -15.3714726402682285  12.2426796059829375 -14.8675766674408418
   0.0382000000000000 -15.7621180349908769  10.9605950566673016 -16.0488153284809911
   0.0382000000000000 -14.5222607382705036  14.4904870828259575 -15.7931488250050478
   0.0382000000000000 -14.6750243662786577  14.8270442087218601 -17.5716211330913090
   0.0382000000000000 -16.3357633657094432  13.4110126383221200 -16.9225775810318737
   0.0382000000000000 -15.1131786015219891  12.5540756877273854 -17.9260986400852609
  -0.0764000000000000  -5.2144644703434926 -13.6277888596820169  -6.1531525062554966
  -0.0764000000000000  -3.7200990780759802 -14.0031915096216686  -6.1662383895738246
  -0.0764000000000000  -5.7243210197894543 -13.0202722060943223  -7.4947667828681972
  -0.0764000000000000  -3.3356360751068133 -14.7901999752831088  -7.4244210737367524
  -0.0764000000000000  -5.2229600887356433 -13.8725257268142155  -8.7352756843446109
  -0.0764000000000000  -3.7113400988799978 -14.0107144526492196  -8.7344442119154113
   0.0382000000000000  -5.5327979618408101 -12.9314898391476873  -5.3174060220674884
   0.0382000000000000  -5.8085024116429373 -14.5997876868442091  -6.0790152983882502
   0.0382000000000000  -3.0972988256392342 -13.1516022091861622  -6.0270748203564644
   0.0382000000000000  -3.4256693709712271 -14.6942961774809326  -5.3676303515630899
   0.0382000000000000  -5.4081565848978217 -11.9840020730010668  -7.5286554763478781
   0.0382000000000000  -6.7914778286255890 -12.9349298585711541  -7.4763459414136344
   0.0382000000000000  -3.9082905287167056 -15.6852249423126970  -7.4656743636297209
   0.0382000000000000  -2.3423173397276109 -15.0778991164954483  -7.3282446106281292
   0.0382000000000000  -5.6260156620446162 -14.8636891617908056  -8.7408431375365261
   0.0382000000000000  -5.5202507177937630 -13.3151734941302387  -9.6100184244945215
   0.0382000000000000  -3.3443585290082023 -14.5193329855993589  -9.6227347594057200
   0.0382000000000000  -3.1668606168997879 -13.0838449984128840  -8.8417201714846314
  -0.0764000000000000   0.8607089173487583  14.6211627017021648  -2.9511628327005539
  -0.0764000000000000   0.7048878881310802  15.1294509197747384  -4.4563202928333476
  -0.0764000000000000   0.1500665163467406  15.5592540149583698  -1.9851526951731850
  -0.0764000000000000  -0.8090631149313817  15.2611744097083655  -4.6800428630464141
  -0.0764000000000000  -1.3307595427949255  15.8178677475383509  -2.3098441645135654
  -0.0764000000000000  -1.4440203298325505  16.3417490357405697  -3.7192531380749947
   0.0382000000000000   1.9665817829498577  14.6170523882716914  -2.6577331071969241
   0.0382000000000000   0.4691774445176591  13.5845042902608757  -2.7750597185095622
   0.0382000000000000   1.1344342425370393  16.1083589632132274  -4.5015810084065402
   0.0382000000000000   1.2194555201010409  14.4818862029053737  -5.1895374133322383
   0.0382000000000000   0.7433143312269982  16.4484012226593990  -1.7978109643249169
   0.0382000000000000   0.2424749075316224  15.0238689025588457  -1.0165504898163811
   0.0382000000000000  -1.3885744053568121  14.3612364399419867  -4.7622224682181624
   0.0382000000000000  -0.8394820753053875  15.6652767035291074  -5.6862651961358877
   0.0382000000000000  -1.9605104839368548  14.9553787793355664  -2.0784918609906886
   0.0382000000000000  -1.7993279537491929  16.5415799861618105  -1.5918841415583707
   0.0382000000000000  -2.4815017119335883  16.5769485546959423  -3.9819680910750743
   0.0382000000000000  -0.9486035342958544  17.2831790266537553  -3.8133811931337935
  -0.0764000000000000 -24.4791303191866270   1.1687217654354296  -2.5291394715896089
  -0.0764000000000000 -25.1513395634472978   1.9944463074093668  -1.4269185814520913
  -0.0764000000000000 -23.2913969513207029   0.2249862488376350  -2.1743649993373935
  -0.0764000000000000 -25.3846641313473391   1.1303907391197869  -0.1313890993290292
  -0.0764000000000000 -23.4422968772653242  -0.3308712834397649  -0.6909854277466450
  -0.0764000000000000 -24.1352883370071858   0.4781612187632228   0.3459510418685686
   0.0382000000000000 -24.2154586238844409   1.8576322457943875  -3.3655812848210025
   0.0382000000000000 -25.2531446070574539   0.5491775318267712  -2.8845343168567239
   0.0382000000000000 -24.4225668590379286   2.7985962911609170  -1.1898060942963853
   0.0382000000000000 -26.0671145645430720   2.4778593759908363  -1.7045960382757162
   0.0382000000000000 -22.3135745786247881   0.6917626703713691  -2.1481088090767542
   0.0382000000000000 -23.1856238991653996  -0.5584490142890439  -2.9552607562954161
   0.0382000000000000 -26.1998041735283635   0.3973912774163798  -0.2770862143384773
   0.0382000000000000 -25.7255317342962968   1.7919685051419714   0.6571612111970708
   0.0382000000000000 -23.8671408611180631  -1.3159529194981585  -0.8499474337450471
   0.0382000000000000 -22.4397370860818484  -0.5580836877678199  -0.3460968425480975
   0.0382000000000000 -24.3819136199132558  -0.1035449361972969   1.2775504893249496
   0.0382000000000000 -23.3817811847595287   1.1157071776453005   0.7110073588339469
  -0.0764000000000000  -3.5355302522119825   9.1880128875439429  -1.8010065676851883
  -0.0764000000000000  -3.8257431782808613   9.6318158781074708  -3.2471036963209783
  -0.0764000000000000  -2.2073038573786201   9.7255615282299210  -1.2987758408915655
  -0.0764000000000000  -3.7909004710291527  11.1673085072929865  -3.3341862498227726
  -0.0764000000000000  -2.0269465967487705  11.2418585190954072  -1.3155407040531490
  -0.0764000000000000  -2.4265821892423731  11.7629461021466177  -2.7364224665547021
   0.0382000000000000  -3.6461246556784666   8.0761481644095898  -1.6662823718048583
   0.0382000000000000  -4.3061972910654136   9.5896225998377229  -1.2375761713572482
   0.0382000000000000  -2.9815976010877581   9.2717358907887153  -3.8662331381377375
   0.0382000000000000  -4.8498657293332057   9.2171119037926150  -3.5533354248690250
   0.0382000000000000  -1.4128310404193332   9.2845199045861602  -1.9774839298466280
   0.0382000000000000  -1.8755760721388732   9.3893832123289833  -0.2794699249675652
   0.0382000000000000  -4.6575986051055356  11.5542319111892287  -2.7662845271821648
   0.0382000000000000  -3.7849142360472032  11.5368586935295099  -4.3215086263308224
   0.0382000000000000  -2.6022540011392179  11.7553202346611894  -0.5278622950798009
   0.0382000000000000  -0.9769193715287642  11.4261461072233690  -1.0480476149575579
   0.0382000000000000  -2.4432662199283057  12.8743964224422456  -2.7953184507088240
   0.0382000000000000  -1.6048656030919966  11.5129222636229311  -3.3718918569076566
  -0.0764000000000000 -11.3912693028326153  -2.1066001330339863 -10.0321156639360964
  -0.0764000000000000 -11.2658768548686314  -2.2000047490035333  -8.4930845726808712
  -0.0764000000000000 -10.9148832979597419  -3.4636977085088310 -10.7034216904523163
  -0.0764000000000000 -12.1585849610691152  -3.2931469569234628  -7.9310617410627273
  -0.0764000000000000 -11.6989990344741841  -4.6470667034246409 -10.1001785861032829
  -0.0764000000000000 -11.7238039108661436  -4.6765519812554244  -8.5153942279020924
   0.0382000000000000 -10.8273591710025325  -1.2827269381434920 -10.3955568914048424
   0.0382000000000000 -12.3542575664700500  -1.8296425383019810 -10.3496969739080598
   0.0382000000000000 -10.2772460934822174  -2.3987626732207081  -8.1728519038817957
   0.0382000000000000 -11.5882402504538327  -1.2923012753156040  -8.0024512691313241
   0.0382000000000000  -9.8545110428005742  -3.4573649160866595 -10.5434234088411038
   0.0382000000000000 -11.0774406101998419  -3.4847215038692303 -11.7180213133484390
   0.0382000000000000 -13.2274759978640049  -3.1875813380172433  -8.3066275851425875
   0.0382000000000000 -12.1290098467360146  -3.3402149448454006  -6.9024193327058692
   0.0382000000000000 -12.7152806862344860  -4.4952414229693174 -10.4165157141071187
   0.0382000000000000 -11.1828247435597703  -5.4746495077474675 -10.4371083463716356
   0.0382000000000000 -12.3821874434209409  -5.4868656117316981  -8.2014570874729351
   0.0382000000000000 -10.7301326407047473  -4.9088564739769369  -8.1959945787372401
  -0.0764000000000000 -17.3698915682641513  -7.6386670797692204  16.7658873601977199
  -0.0764000000000000 -16.5151187203387728  -7.4765709936547537  15.4477005329825445
  -0.0764000000000000 -17.7964796843706026  -6.3372198328812708  17.4673067137955229
  -0.0764000000000000 -17.2501640779688294  -6.5072221990516130  14.4983703410176972
  -0.0764000000000000 -18.5110572273443559  -5.4610804038096195  16.4652150401244199
  -0.0764000000000000 -17.6844194332296389  -5.1701445389694083  15.1966969425033458
   0.0382000000000000 -16.7242135102017748  -8.2891168190970603  17.3027977627730891
   0.0382000000000000 -18.2817641704433065  -8.2405315127099499  16.6077098430961847
   0.0382000000000000 -15.4987015844420473  -7.0424213651456880  15.6098656468446908
   0.0382000000000000 -16.2652221652684155  -8.3293918139132863  14.8972432050911454
   0.0382000000000000 -16.9119175489051976  -5.7268724509344331  17.7913400755680016
   0.0382000000000000 -18.4386141519561235  -6.5711667630536965  18.3244256185205927
   0.0382000000000000 -18.1169996454708162  -7.0796966346828318  14.0868315296672275
   0.0382000000000000 -16.6802075800253569  -6.3137348939086131  13.5541628246904455
   0.0382000000000000 -19.4749594738816931  -6.0171074433059122  16.1747195060900921
   0.0382000000000000 -18.7808984817245594  -4.5071152205166021  16.9241692624688049
   0.0382000000000000 -18.1516456760829890  -4.5571999394203067  14.3749591229366995
   0.0382000000000000 -16.8497678130661157  -4.5494155047816669  15.3595759032692278
  -0.0764000000000000 -20.7556624798797920  -8.0301180998676909  -0.0072694973399754
  -0.0764000000000000 -21.8694833826596238  -7.2646075905796463  -0.7038518935972539
  -0.0764000000000000 -19.7652615265819840  -8.7772621781072910  -0.9598203896576364
  -0.0764000000000000 -21.2992059627627128  -6.2531385192738433  -1.7945430808232223
  -0.0764000000000000 -19.2133552805916814  -7.9035521065710297  -2.1062267113259279
  -0.0764000000000000 -20.3479186554298153  -7.0357483884519745  -2.7295111918357571
   0.0382000000000000 -21.1832367441162468  -8.7198141827960320   0.7488028942180123
   0.0382000000000000 -20.1026927235553465  -7.2816860267374874   0.5867002859494924
   0.0382000000000000 -22.5587965753655659  -7.9880211259238614  -1.1683756517656469
   0.0382000000000000 -22.4672138832196744  -6.6503154343145692  -0.0562464397868155
   0.0382000000000000 -20.4294517945314666  -9.4757512386934337  -1.4348611370080395
   0.0382000000000000 -18.9573213652620147  -9.2902073894725667  -0.4325823699310579
   0.0382000000000000 -20.7324680134433805  -5.4577315027686630  -1.3588856732636054
   0.0382000000000000 -22.1204442469103597  -5.8941843749794725  -2.3541057633238567
   0.0382000000000000 -18.5062219588804453  -7.1811513696209959  -1.7667402891236330
   0.0382000000000000 -18.7699693456695158  -8.5854959208230905  -2.9025698368657951
   0.0382000000000000 -19.8212287403430629  -6.3989126597827610  -3.4428488066557406
   0.0382000000000000 -21.0112993529745573  -7.6460476335927225  -3.3782580506962137
  -0.0764000000000000  -4.5202723868590686  -7.9476047418572566  12.9974844312466917
  -0.0764000000000000  -3.8341417795365440  -7.1476614444720479  11.8871150707044997
  -0.0764000000000000  -5.0727512009871099  -6.9892739034909095  14.0835478181303770
  -0.0764000000000000  -4.6504890916145003  -5.9359866398021106  11.3481900872703889
  -0.0764000000000000  -5.9448414228052915  -5.8501398084388931  13.5660904252815531
  -0.0764000000000000  -5.1266221882638847  -5.0572707560541454  12.5698359871176937
   0.0382000000000000  -3.7453607786223797  -8.6495189163226023  13.3018502516588910
   0.0382000000000000  -5.2665155086266875  -8.5057476785992066  12.4471510794721549
   0.0382000000000000  -2.9265473574141532  -6.7630865473625228  12.3064899044758160
   0.0382000000000000  -3.4698073629168862  -7.8475479369885450  11.0750264317522511
   0.0382000000000000  -4.3251315383044133  -6.5601651464579227  14.8298405065144507
   0.0382000000000000  -5.7334055917705307  -7.6366173824252632  14.7001387415496776
   0.0382000000000000  -5.5396121292047775  -6.4207492201090881  10.8739434506313994
   0.0382000000000000  -4.1265971814750326  -5.4238563531831518  10.5429613852829540
   0.0382000000000000  -6.8772680315536299  -6.2126319746107352  13.0513516395895195
   0.0382000000000000  -6.2107444857030734  -5.1968401987942032  14.3827192715467262
   0.0382000000000000  -5.5654147603287658  -4.1792783472552788  12.2015941596522097
   0.0382000000000000  -4.1598997147646291  -4.7443342566847377  12.9928626158521556
  -0.0764000000000000  -7.7098269808069997 -24.5416486956582922  -0.0089220004053623
  -0.0764000000000000  -6.6794190010001762 -25.4888898441050706   0.5492357415829326
  -0.0764000000000000  -8.6648545821012064 -24.0478871634745168   1.0879697954497345
  -0.0764000000000000  -5.8685258523287258 -24.7928709184085641   1.6665074152013104
  -0.0764000000000000  -7.9864165831863767 -23.4336601889426177   2.3547240781471435
  -0.0764000000000000  -6.8370880498453532 -24.3811843471282472   2.8805348832894020
   0.0382000000000000  -8.1952992706664265 -24.8724327625578354  -0.8984872952638197
   0.0382000000000000  -7.1368283233944094 -23.7145975396924449  -0.3364170188330792
   0.0382000000000000  -7.1343472540161423 -26.3845308702402299   0.9570036815892849
   0.0382000000000000  -5.8582399645633823 -25.7471720390499534  -0.1192527705808710
   0.0382000000000000  -9.2244557074296409 -24.9621815165062451   1.4242525460398821
   0.0382000000000000  -9.4272990331642372 -23.3423648852600323   0.6262045430711241
   0.0382000000000000  -5.2628635930083583 -23.9979785179612257   1.2922334177856893
   0.0382000000000000  -5.1908815513896798 -25.4874576292685937   2.1828432482332665
   0.0382000000000000  -7.6321298720288455 -22.4516994113707469   2.0990382465596289
   0.0382000000000000  -8.6450419461170593 -23.3214058429697424   3.2009284621201930
   0.0382000000000000  -6.1570102042626988 -23.8272804916449346   3.5758629921616887
   0.0382000000000000  -7.2676054630062348 -25.3918029416392557   3.2260279453169205
  -0.0764000000000000 -14.8870857038618691   5.6289648721056942  12.8580316446285305
  -0.0764000000000000 -15.7951599860926901   4.8472409665228016  11.8977190613982291
  -0.0764000000000000 -14.8537396477280748   7.1552809405088231  12.4813027739687481
  -0.0764000000000000 -17.2469915025137794   5.3407426465122478  11.9697562035481209
  -0.0764000000000000 -16.3464119616006762   7.6755140647260669  12.4581176645726384
  -0.0764000000000000 -17.3544362854952432   6.8193793697685754  11.6595269384970486
   0.0382000000000000 -13.9229211127943646   5.2348756415939697  12.7268972570606191
   0.0382000000000000 -15.1167304912537741   5.5163923768457943  13.9074932837339116
   0.0382000000000000 -15.4865908541884938   4.9811254126099032  10.8598521613638805
   0.0382000000000000 -15.7856557696217372   3.7534459941296237  11.9947482711613631
   0.0382000000000000 -14.4563170505355885   7.3062886384904377  11.4263873880123814
   0.0382000000000000 -14.2820425549437964   7.8140453796084204  13.1484292774489493
   0.0382000000000000 -17.6780964090617196   5.0427427461222853  12.9166630346679963
   0.0382000000000000 -17.8587415929755053   4.8264993567763401  11.1775513922636289
   0.0382000000000000 -16.6656089123599358   7.6181126842938314  13.5687204850753478
   0.0382000000000000 -16.3528542987502128   8.7324674574716745  12.2396339405858168
   0.0382000000000000 -18.4007651179103711   7.1260558418904019  11.8345519602415745
   0.0382000000000000 -17.2040808875392166   6.9447801515359764  10.5696178148385922
  -0.0764000000000000 -10.3986432187002649  -8.2824260363989683   5.6068658345261220
  -0.0764000000000000 -11.2166002104841933  -7.0404297628895245   5.5241203405132282
  -0.0764000000000000 -10.5950045433849986  -9.1492469029072723   4.3930457248176848
  -0.0764000000000000 -11.0245541397789193  -6.2292647572169662   4.1677690586803102
  -0.0764000000000000 -10.3824802048660523  -8.4933659643465109   3.1011849611158273
  -0.0764000000000000 -11.2977201436606247  -7.1421972234774911   2.9488858522282504
   0.0382000000000000 -10.6394609015781185  -8.8453840257174399   6.5005970075982615
   0.0382000000000000  -9.3539484361274940  -7.9497974452135969   5.7280807645870384
   0.0382000000000000 -12.2979471514155509  -7.2685622091153599   5.6730108541614159
   0.0382000000000000 -10.9032016043159210  -6.4275991359111542   6.3545438514419148
   0.0382000000000000 -11.7014497877735213  -9.3432905252031357   4.3654920893292237
   0.0382000000000000 -10.0476762377461455 -10.1099731943965985   4.4351331554483711
   0.0382000000000000  -9.9302092238998174  -5.8868138280950264   4.1348204967652000
   0.0382000000000000 -11.6016635798905998  -5.3121946832343392   4.1171180300055994
   0.0382000000000000  -9.3187362533919682  -8.3007073915323151   2.8424247862342744
   0.0382000000000000 -10.6441556416144305  -9.2280573762224982   2.3719504324643959
   0.0382000000000000 -11.0088393428120810  -6.7151337587708229   2.0231255113460098
   0.0382000000000000 -12.3976412022397842  -7.3353778967806091   3.0209867568392301
  -0.0764000000000000   4.6299553003962348 -13.3428854350502686  18.1435152898917416
  -0.0764000000000000   4.9688525393629250 -14.8298309777733319  17.9787331240851280
  -0.0764000000000000   4.2454735230738088 -13.0035237098712990  19.5777827089871650
  -0.0764000000000000   5.9618878412502241 -15.3695185594526702  19.0148006843502664
  -0.0764000000000000   5.2495913906262395 -13.5076758698275690  20.5983154638451076
  -0.0764000000000000   5.5514405985165958 -15.0317843509520888  20.4831139038485439
   0.0382000000000000   3.8481903544968339 -12.9203540959216170  17.4568075928927939
   0.0382000000000000   5.6301438260530983 -12.8412317431400389  18.0450543309226354
   0.0382000000000000   4.1354013861291206 -15.5091966996216541  17.9591929822763348
   0.0382000000000000   5.4986484866559451 -14.8935424739142039  16.9990240856998049
   0.0382000000000000   3.2653992654351205 -13.3992173056848785  19.8798807233905066
   0.0382000000000000   4.0605094904123158 -11.8967989248904544  19.5786190731529821
   0.0382000000000000   6.9073589519852758 -14.8539929334607415  18.7357593269341010
   0.0382000000000000   6.1487836723489737 -16.4583184100870668  18.7103761039937844
   0.0382000000000000   6.2125301462179650 -12.9614322905836730  20.3607914471499711
   0.0382000000000000   4.9226041838976258 -13.2334809817074106  21.6704790267177927
   0.0382000000000000   6.4443098677186557 -15.1504223176961546  21.1488240185374323
   0.0382000000000000   4.6775274519034191 -15.6335742654596501  20.7060391102541779
  -0.0764000000000000  -9.4656407971762686   4.0896867299943800  20.0691585072339613
  -0.0764000000000000  -9.2455844127262807   5.6227215369482622  20.1862418334710227
  -0.0764000000000000 -10.1943019864559563   3.4900359795607030  21.2917790538711493
  -0.0764000000000000 -10.5602476905982350   6.4034611655520877  20.4267460342592031
  -0.0764000000000000 -11.4859357004585885   4.2433779193644128  21.7220168884223064
  -0.0764000000000000 -11.3480387564450638   5.7914469992525239  21.6326980911067288
   0.0382000000000000  -8.5425570088796050   3.5076281601441202  19.8257654671831958
   0.0382000000000000 -10.1888995290232316   3.9648184296656681  19.1857499162987821
   0.0382000000000000  -8.5691212034698818   5.9240722730224906  21.0775193778288745
   0.0382000000000000  -8.8253094017649776   6.0919901371294918  19.3034027256407050
   0.0382000000000000  -9.4001991169013763   3.5605921608654816  22.0555556141623477
   0.0382000000000000 -10.4083905681583015   2.4001701984884694  21.2052014218319513
   0.0382000000000000 -11.1266283045634076   6.2822821714347787  19.4434228003970340
   0.0382000000000000 -10.4201519919928689   7.4584734626928251  20.7116515624676474
   0.0382000000000000 -12.2539499476228109   3.8444835148815164  21.0195712738265499
   0.0382000000000000 -11.8459798304453319   4.0197347775524257  22.7329234124810142
   0.0382000000000000 -12.3787454876572482   6.1862521042246978  21.7600741729541838
   0.0382000000000000 -10.7161536834465903   6.0693244085921307  22.4554903183481613
  -0.0764000000000000  15.0160722335179688  -7.4702066600689712  19.5474902918889271
  -0.0764000000000000  14.3015686794807220  -6.9601320234427071  20.8037555996167320
  -0.0764000000000000  13.9822445764941161  -7.5162311121555145  18.3169492653002273
  -0.0764000000000000  13.6701968346180394  -5.5568899490169432  20.4723013918055550
  -0.0764000000000000  13.3991574731019654  -6.1123220592883731  17.9676497588311825
  -0.0764000000000000  12.7453266140704748  -5.5113445348604975  19.2024749549294178
   0.0382000000000000  15.3269170958512078  -8.4969389112429106  19.6678492235155993
   0.0382000000000000  15.8801133749977392  -6.8234071403562062  19.3538133107126136
   0.0382000000000000  13.4516066535692662  -7.5823763088057117  21.1587038002233463
   0.0382000000000000  15.1137901785854964  -6.9471064680841383  21.5950492019336053
   0.0382000000000000  13.2148022760554511  -8.2604121416292049  18.4990044995426359
   0.0382000000000000  14.5829265970796023  -7.7790599028129108  17.5191075356257464
   0.0382000000000000  14.5378359505849026  -4.8444145222580612  20.3704307917248819
   0.0382000000000000  13.2075411548446588  -5.1844238984703654  21.4016567106315634
   0.0382000000000000  14.1177122256599148  -5.3930500633048162  17.6143368462196719
   0.0382000000000000  12.5883299369639126  -6.2252676790299448  17.2530124275212593
   0.0382000000000000  12.4876210043111975  -4.4571142199509728  18.9159962213897117
   0.0382000000000000  11.7478515046383283  -5.9940963216022292  19.3625281448572082
  -0.0764000000000000 -19.7478455310643248   0.2235982422128342   8.4436912861447766
  -0.0764000000000000 -19.7479342806544338   1.3233291184265701   9.5188404762545762
  -0.0764000000000000 -18.4668839644646710   0.2358243819521904   7.6301463088671877
  -0.0764000000000000 -18.4215280363658316   1.3505201445949659  10.3255213064767108
  -0.0764000000000000 -17.1854682561096759   0.2253824030192143   8.4592539978932795
  -0.0764000000000000 -17.1289166521064189   1.3429680684959713   9.5110051012968047
   0.0382000000000000 -20.6544244635766283   0.1806146354184498   7.7826786201226961
   0.0382000000000000 -19.6945820683263548  -0.7363102163694959   8.9865479529614003
   0.0382000000000000 -19.7650709043958308   2.3200679663728385   9.0824930470710239
   0.0382000000000000 -20.7128621520333134   1.2965674237951417  10.1601344549425434
   0.0382000000000000 -18.3352443772258056   1.0555713187231377   6.9634753439981827
   0.0382000000000000 -18.5136157293499544  -0.6162668898756459   6.9379205090327449
   0.0382000000000000 -18.3893735771310354   0.4834419225595679  11.0464638204680856
   0.0382000000000000 -18.2918003219341720   2.2493529775811498  10.9607369636608407
   0.0382000000000000 -17.0438248646795110  -0.7240763443538301   9.0996054190678759
   0.0382000000000000 -16.3831010200522584   0.3082121317198534   7.7463998556552465
   0.0382000000000000 -16.2647552210139779   1.2249751496217516  10.1618870433578437
   0.0382000000000000 -16.9898961549646401   2.3007968373689196   8.9104298210296573
  -0.0764000000000000  11.6256606473696582 -11.3687464820911686   5.1497079265746848
  -0.0764000000000000  12.4954146447035495 -11.5573965585408676   3.9225155657797859
  -0.0764000000000000  11.1873924343380295  -9.8880618463725032   5.3189878221642308
  -0.0764000000000000  11.8068647355913274 -10.9794674359365860   2.6878919115387632
  -0.0764000000000000  10.5374201617658745  -9.3092801257462519   4.0322141454611948
  -0.0764000000000000  11.3375572785288359  -9.4580087961575767   2.7185463943689294
   0.0382000000000000  12.1161789594797398 -11.6861110912978923   6.0658487668240193
   0.0382000000000000  10.7051589836604624 -12.0371768258504890   5.1246654656507538
   0.0382000000000000  13.4875199865809101 -11.0687334325328397   4.0821146771484926
   0.0382000000000000  12.6532071559810557 -12.6243878964610623   3.7394406131848985
   0.0382000000000000  12.0076961563704838  -9.2428179421558259   5.5811587061379431
   0.0382000000000000  10.4563211864464893  -9.8130487115363021   6.1453582702594325
   0.0382000000000000  10.8853180106472429 -11.5653584083071284   2.6267044747418300
   0.0382000000000000  12.2824929871859414 -11.2508875803506108   1.7805348816273441
   0.0382000000000000   9.6162786008334091  -9.7461239675715490   3.8976048899629374
   0.0382000000000000  10.2960974361889566  -8.2685015186545758   4.0958774585707056
   0.0382000000000000  10.7364896995795647  -9.1988540104476186   1.8633661174360256
   0.0382000000000000  12.2422372352402835  -8.8927910509863661   2.7299296972965057
  -0.0764000000000000  21.8218246154786399  -6.2119193130024533   4.9858009025140326
  -0.0764000000000000  20.9411670304874562  -6.0464738334292045   3.7090612250907196
  -0.0764000000000000  20.9965590336295591  -6.8246766226822455   6.1153161997211187
  -0.0764000000000000  20.2113367711424949  -7.3945649583269910   3.2827225508820428
  -0.0764000000000000  20.3945523866663265  -8.2392929601628513   5.7131009105567951
  -0.0764000000000000  19.4396543657582228  -8.1001290872398499   4.4916336756755131
   0.0382000000000000  22.2010755332071916  -5.2091035444132263   5.2859157469759097
   0.0382000000000000  22.6922244461534142  -6.7660203141748223   4.7496576682693599
   0.0382000000000000  20.1568847689800066  -5.3428175505310804   3.9005125391139539
   0.0382000000000000  21.4816303596256120  -5.6704719133739978   2.9027014528296595
   0.0382000000000000  20.1444731470309186  -6.2502755571908182   6.4358403805280915
   0.0382000000000000  21.7090008636976393  -7.0006487107597550   6.9764781581884030
   0.0382000000000000  20.8123406073343347  -8.1430853516424211   2.7515675952600338
   0.0382000000000000  19.4278586200363357  -7.1075537802049444   2.5532576717452660
   0.0382000000000000  21.2756594951907587  -8.7938631409282628   5.3858080260306362
   0.0382000000000000  19.9989535974534540  -8.8256393437739487   6.5900925872451346
   0.0382000000000000  19.1792759663165775  -9.1432060903921037   4.1288065102933080
   0.0382000000000000  18.4817930159417614  -7.6242236708978623   4.7022367279865112
  -0.0764000000000000  -9.4924019853574002 -16.6674967259039946   6.6477034938440713
  -0.0764000000000000  -8.3075624989702472 -17.4185219597529688   6.0415900948983730
  -0.0764000000000000  -9.2238726870235244 -15.1173785001083250   6.8032576016628230
  -0.0764000000000000  -7.8308759347224512 -16.7691961927322382   4.7085968477776969
  -0.0764000000000000  -8.8799289902551628 -14.5108325603061665   5.4221104650715484
  -0.0764000000000000  -7.6951903060999047 -15.2134253889779032   4.7404628929522454
   0.0382000000000000  -9.6351767062497711 -17.0739672307746062   7.6783523312975763
   0.0382000000000000 -10.3857535343885665 -16.6712470244312279   6.0204303623471995
   0.0382000000000000  -7.5048665778696515 -17.4696819606528670   6.8335384731655697
   0.0382000000000000  -8.5052529043542542 -18.4912603678420631   5.7670100378930780
   0.0382000000000000  -8.3184117351136369 -14.8939371084910821   7.4351454953111222
   0.0382000000000000 -10.1602011712728206 -14.6361502338901381   7.2139490020405681
   0.0382000000000000  -8.5815322438393729 -17.0702446247965547   3.9807051123382018
   0.0382000000000000  -6.8818249751268397 -17.1740584082356769   4.3949311492457808
   0.0382000000000000  -9.7110014644925524 -14.4448254858827028   4.7187717442042505
   0.0382000000000000  -8.6488602580043121 -13.4663056014692462   5.5416504330509033
   0.0382000000000000  -7.6610832477509190 -14.8156769156016264   3.7539930702596322
   0.0382000000000000  -6.7634157242071344 -14.8953597759345637   5.2180200519998055
  -0.0764000000000000  -5.0093498635513676   8.4047330921998036   3.9950209874565750
  -0.0764000000000000  -4.5119928603838035   9.8735046803783764   4.0643975177966842
  -0.0764000000000000  -4.7670925185106512   7.6408417576214580   5.3490676849051271
  -0.0764000000000000  -5.2138553610304408  10.5767946332183591   5.2934236012539584
  -0.0764000000000000  -5.3494819588921905   8.3684686982132082   6.5665534953973186
  -0.0764000000000000  -4.8881924466864710   9.8111058877548398   6.5739992221416736
   0.0382000000000000  -4.5105555976335729   7.7673692057398256   3.2321310061050630
   0.0382000000000000  -6.1037011288874368   8.3444334119800612   3.7645340597927901
   0.0382000000000000  -3.4263919129231479   9.8101064478981410   4.2872922592597806
   0.0382000000000000  -4.6598018054117345  10.3483742926216262   3.1055723575229113
   0.0382000000000000  -3.7856002301021445   7.2796458847014094   5.6870701348542649
   0.0382000000000000  -5.2437278153072793   6.6645544170525648   5.1731040984226722
   0.0382000000000000  -6.3059573875334953  10.7345454290368760   5.2542689564825018
   0.0382000000000000  -4.7284781600060741  11.5490648335566135   5.3360174241911533
   0.0382000000000000  -6.4168553148353062   8.3686897127197071   6.5098951124849567
   0.0382000000000000  -5.1419385870081218   7.8747231492106291   7.5277955991783259
   0.0382000000000000  -5.3814987881245910  10.3330909405988525   7.4567686654371830
   0.0382000000000000  -3.8193873880610649   9.7138141734679007   6.6833351506001923
  -0.0764000000000000  -8.4496467105171842  -5.0578455533810098  20.1720787859531434
  -0.0764000000000000  -9.0368214270667195  -5.8805578382281656  19.0496218177492693
  -0.0764000000000000  -6.8869111312507263  -4.7839810545646664  20.2295501813538863
  -0.0764000000000000  -8.3099478031477805  -5.6299362110529509  17.7090527227253460
  -0.0764000000000000  -6.3285415330785186  -4.6525471750554148  18.7941566051911053
  -0.0764000000000000  -6.8098910955902436  -5.7893622656349981  17.8824155839225902
   0.0382000000000000  -8.9005252748406658  -5.3545635030882561  21.1279436585457354
   0.0382000000000000  -8.9159339524164896  -4.0581914808519031  19.9217148114508831
   0.0382000000000000  -8.9208031358839452  -6.9421959720057167  19.2371118445789122
   0.0382000000000000 -10.1023308683748052  -5.8377202265606947  19.0321338413712091
   0.0382000000000000  -6.3415438727736300  -5.6933490780780982  20.7109854569026446
   0.0382000000000000  -6.6496771689257201  -3.9192572489455424  20.8442883656281595
   0.0382000000000000  -8.4763715200651752  -4.6204022886500509  17.2922557786704694
   0.0382000000000000  -8.5764189710157606  -6.1925062769789729  16.8488849011478017
   0.0382000000000000  -6.7275766578771297  -3.7147716195218372  18.3693325865018302
   0.0382000000000000  -5.2437189352529137  -4.5583444147827619  18.8192705922147887
   0.0382000000000000  -6.2838378628238516  -5.7419183991491707  16.9194305670855840
   0.0382000000000000  -6.5136559684359918  -6.7572354477482790  18.3809695104365716
  -0.0764000000000000 -13.4217185834297421  -8.3071434396109947 -17.2434144727000032
  -0.0764000000000000 -13.6381277021414515  -9.3000392945547450 -16.0954602897777654
  -0.0764000000000000 -14.1826112278748244  -7.0042648483928671 -16.9458428624648079
  -0.0764000000000000 -13.3189274654879082  -8.6472497223014617 -14.7560804970912809
  -0.0764000000000000 -13.9616908014819856  -6.3376058844957006 -15.5461088554714113
  -0.0764000000000000 -14.1457282718857886  -7.3570326731648876 -14.4366633518354952
   0.0382000000000000 -13.6852517924887458  -8.6100088892998965 -18.2650269916134640
   0.0382000000000000 -12.3424607993001292  -8.2269983617713738 -17.4231052027793432
   0.0382000000000000 -14.6495368690009684  -9.6430774810337283 -16.0272498168510324
   0.0382000000000000 -13.0329825482408843 -10.2206593130944388 -16.2049473483354909
   0.0382000000000000 -15.2528310254992547  -7.1791817684964485 -17.1285617672930925
   0.0382000000000000 -13.7144186166150064  -6.2650587490947496 -17.6250931603157959
   0.0382000000000000 -12.2054055941865727  -8.4664202897786414 -14.7568438637727137
   0.0382000000000000 -13.5093524044425735  -9.3772921529483142 -13.9482290390950538
   0.0382000000000000 -12.9369446239021055  -5.9671477915764832 -15.4296756989688539
   0.0382000000000000 -14.7252486955092596  -5.6148896387021052 -15.2457195412615807
   0.0382000000000000 -13.7785262693811443  -6.8885639876121747 -13.4625637579115249
   0.0382000000000000 -15.2171157385147904  -7.5607324897007322 -14.2845473840422272
  -0.0764000000000000  13.2474087155639904   3.2838791833940948   7.2815873528107113
  -0.0764000000000000  12.4936078800878949   3.9958954487589806   6.2070287036735969
  -0.0764000000000000  14.6701461071657118   2.8176698767498038   6.7845742017012105
  -0.0764000000000000  13.2744519989645795   5.0802592383537748   5.3976772443310423
  -0.0764000000000000  15.4409333487679685   3.9639217871305799   6.1394617988098918
  -0.0764000000000000  14.6834272274369315   4.6749634316746018   4.9587877377747631
   0.0382000000000000  12.6640777043733834   2.4684821105662418   7.6609058694106409
   0.0382000000000000  13.4322936258687662   3.9050580007230193   8.1695275565791370
   0.0382000000000000  12.2123575409659093   3.2797668680747716   5.4953485304697614
   0.0382000000000000  11.6301525162251504   4.4690975035099543   6.6609585938321603
   0.0382000000000000  14.5816677862329716   1.8559766970689553   6.3060704498726627
   0.0382000000000000  15.2972266701589525   2.5904299282155798   7.7105889163575378
   0.0382000000000000  13.3236041957531466   5.9883768343834261   6.0835184724868610
   0.0382000000000000  12.6970705314766015   5.4663557392104716   4.5427892427900982
   0.0382000000000000  15.5783376462850569   4.7682565164918769   6.9200626942762691
   0.0382000000000000  16.3527413437435349   3.4867061742956804   5.8239045426682114
   0.0382000000000000  15.3489321732830124   5.4578065488801117   4.5425024094174846
   0.0382000000000000  14.5435748567509169   3.9360861089065686   4.1552308111656755
  -0.0764000000000000  -5.7916223669219837  14.3441025754047544  16.5745005902619162
  -0.0764000000000000  -4.9128281932748434  13.1515432596484594  16.9772694996540316
  -0.0764000000000000  -7.2757472170861366  14.0811686374271527  16.9919043332259783
  -0.0764000000000000  -5.1015446619323948  12.8360618049846327  18.4900545318854341
  -0.0764000000000000  -7.5227173225910988  13.6966657514465808  18.4561984958544407
  -0.0764000000000000  -6.6012002137689647  12.5442230423355419  18.8974524624726676
   0.0382000000000000  -5.7815727162987240  14.5072684219495027  15.4858046745540303
   0.0382000000000000  -5.4024008092072364  15.2004215806534759  17.1406533343226677
   0.0382000000000000  -5.3586579722981886  12.3459362232313126  16.3745771284506176
   0.0382000000000000  -3.9321183772268364  13.3582679998509519  16.6981921150898991
   0.0382000000000000  -7.8535528312466161  13.4578835151009635  16.2812080870100608
   0.0382000000000000  -7.7776484949280853  15.0267696180389230  16.7548001070474513
   0.0382000000000000  -4.6752377552613602  13.7262077237861995  19.0880018276984309
   0.0382000000000000  -4.4857500366365235  11.9160345017094951  18.7738234159782387
   0.0382000000000000  -7.4144503849600412  14.5686310105983736  19.1130185029586350
   0.0382000000000000  -8.5854577207967733  13.5079647284541746  18.5081049871239713
   0.0382000000000000  -6.5163802380377742  12.4470719712701587  20.0126784730449678
   0.0382000000000000  -6.9468978758303930  11.5714277947373532  18.5014088672976094
  -0.0764000000000000   6.2973851609318707 -20.2031729436158827  -7.6696172839240306
  -0.0764000000000000   5.4152557900784410 -20.5188662301789115  -6.4768271434981628
  -0.0764000000000000   5.6026288278933247 -20.6256689101418118  -9.0234518567689737
  -0.0764000000000000   3.9707097743560720 -19.9314125780267624  -6.5714357172751576
  -0.0764000000000000   4.2309764975404400 -19.9812917551237206  -9.1286895681249955
  -0.0764000000000000   3.3449682406015437 -20.3725523511006337  -7.9025500236687121
   0.0382000000000000   7.2634276417758334 -20.6849515765115122  -7.5948321049612026
   0.0382000000000000   6.5639671039899081 -19.1862092547310716  -7.6709090886164342
   0.0382000000000000   5.4098142578759303 -21.5563018388958270  -6.2845175296591593
   0.0382000000000000   5.8396821785822981 -20.1455837812128991  -5.5202504916043447
   0.0382000000000000   5.4387384421779865 -21.7018451227545519  -8.9509158468452306
   0.0382000000000000   6.2014218442105813 -20.4124574551176359  -9.9088753233836862
   0.0382000000000000   3.9801821056236588 -18.7981432168628793  -6.6028476570018260
   0.0382000000000000   3.4110184418544693 -20.3768479506032705  -5.7145025364611657
   0.0382000000000000   4.4223087958642227 -18.9466044416441157  -9.2584747208702769
   0.0382000000000000   3.7291162520360923 -20.2219305544176748 -10.0072706592758980
   0.0382000000000000   2.3151429804116677 -19.9893690556061259  -8.0881363595276881
   0.0382000000000000   3.1792771699215456 -21.4077860542746876  -7.7732496567896865
  -0.0764000000000000   2.3403163110967489 -10.0004768588785744  13.7826106906507775
  -0.0764000000000000   1.3929361427848719  -8.8026841788904733  13.8033494102269554
  -0.0764000000000000   2.1311733186670110 -10.9116266683871537  15.0548621776722538
  -0.0764000000000000  -0.0699588541032625  -9.2262230618099803  13.9117797038266247
  -0.0764000000000000   0.5854963173419526 -11.1794003881817456  15.3588497796397103
  -0.0764000000000000  -0.3250455416075582  -9.9743152202952068  15.2317234731780040
   0.0382000000000000   3.3678167222576540  -9.6519383243688601  13.8331482648465247
   0.0382000000000000   2.1098173248713277 -10.6323270634805596  12.8622294647675730
   0.0382000000000000   1.6933916387895260  -8.0581288238351441  14.5617551092757402
   0.0382000000000000   1.5749833625953769  -8.3365894242230656  12.7881277553572552
   0.0382000000000000   2.6682679819782638 -10.5076603426913930  15.9022193629622723
   0.0382000000000000   2.5495449032448669 -11.9790149146414837  14.9688388395720349
   0.0382000000000000  -0.4052382673184918  -9.7992758652308112  12.9912349771873608
   0.0382000000000000  -0.6535225155258896  -8.3223465547186262  13.9087824966369595
   0.0382000000000000   0.2404838817900443 -11.8833887546898360  14.6380436554794411
   0.0382000000000000   0.4626715770430226 -11.6043294836432551  16.3737831649654169
   0.0382000000000000  -1.3977956253383914 -10.3086586504354365  15.3380104394736883
   0.0382000000000000  -0.1559130723207315  -9.2960660664304076  16.0606615219423610
  -0.0764000000000000 -14.2965535054696122  -4.6642041105878445   6.5051421088337413
  -0.0764000000000000 -14.7471454292156778  -3.3998502081439659   5.7956207992454898
  -0.0764000000000000 -13.2018604715639345  -4.4446993832698176   7.5542298371568863
  -0.0764000000000000 -15.1063708892629673  -2.2497478174862078   6.7608877600715740
  -0.0764000000000000 -13.6200948735034135  -3.3679804884753666   8.5539831413803320
  -0.0764000000000000 -13.9568676479165710  -2.0515411420917724   7.8175514771985721
   0.0382000000000000 -13.8568857680691710  -5.3300731347630883   5.7067666824407945
   0.0382000000000000 -15.1624626918949783  -5.1987188338330217   6.9593143738660661
   0.0382000000000000 -13.8355625026143851  -3.1189321393456191   5.2451963300124476
   0.0382000000000000 -15.5058776412041492  -3.5103439707074329   5.0831517278975209
   0.0382000000000000 -12.2640141594669849  -4.2911665663696423   7.1011942375983512
   0.0382000000000000 -13.1537610842608927  -5.3570271061733861   8.1667713447930357
   0.0382000000000000 -16.0701229788587767  -2.4076711031099043   7.3000427657700167
   0.0382000000000000 -15.2394337712139425  -1.3697172077940594   6.0760983339852235
   0.0382000000000000 -14.5114360490177301  -3.6626463342076154   9.1258816865593406
   0.0382000000000000 -12.7759752762590413  -3.2511542627453407   9.3237835629886501
   0.0382000000000000 -14.3002151422879926  -1.2718859416414614   8.4960716277381749
   0.0382000000000000 -13.0969746269822362  -1.6483309988567232   7.3075389997015607
  -0.0764000000000000  10.1600404851357222   2.3597092344814419  11.9565171643061614
  -0.0764000000000000   8.6344600712667976   2.4830267358506650  11.9189465315023799
  -0.0764000000000000  10.8083531295516071   3.2427623322630601  13.1253995496083569
  -0.0764000000000000   7.9100558726521122   2.3440079377863596  13.3224232553421427
  -0.0764000000000000  10.0167353387628353   3.1741085228001853  14.4550539965415670
  -0.0764000000000000   8.4818778636488563   3.3688294995738119  14.3045448221698717
   0.0382000000000000  10.5651865441456909   2.4817680716397725  11.0336146903419650
   0.0382000000000000  10.3125141803421183   1.2831293933332937  12.1589174437041638
   0.0382000000000000   8.4429249890000655   3.4814781403188970  11.4578938089145215
   0.0382000000000000   8.3711840687241867   1.6535950916596365  11.2426110706028126
   0.0382000000000000  10.9543995729114343   4.2760425937227202  12.8963164683369023
   0.0382000000000000  11.8081820890701934   2.8415473763392538  13.4246496204123211
   0.0382000000000000   8.0637937649638456   1.3437099859561248  13.7503547031049873
   0.0382000000000000   6.8357285252461235   2.4135509189544653  13.1352371783196507
